# .PCD v.7 - Point Cloud Data file format
VERSION .7
FIELDS x y z rgb
SIZE 4 4 4 4
TYPE I I I U
COUNT 1 1 1 1
WIDTH 2914
HEIGHT 1
VIEWPOINT 0 0 0 1 0 0 0
POINTS 2914
DATA ascii
-6 6 0 ad697b
-37 16 -23 a0a0a0
-31 3 -4 ca8e7e
-37 9 -5 63dc8f
7 -20 -27 7b89c4
-6 -5 -14 ff9b5f
-8 25 -9 7d5a96
-1 21 28 ad697b
-27 19 -2 a0a0a0
-2 6 5 4e5e94
-18 28 0 a0a0a0
10 -24 -1 734c7b
-4 13 -20 ce8daf
-10 2 6 704ca4
14 6 5 45148c
9 14 16 5d9ccc
23 0 1 473096
-16 16 15 9e6342
10 8 -8 c57bb0
-18 17 0 ad697b
-16 -3 7 80724c
-34 -12 -7 a0a0a0
0 7 -7 b08064
-13 24 -51 847583
12 -10 9 4d5057
21 -10 3 454a6d
-35 32 10 8b50ff
-30 -10 0 c36881
17 5 16 734c7b
2 18 1 669cdd
2 21 34 734c7b
-21 -11 -20 a0a0a0
-25 0 -29 52ffdb
-25 3 -36 ce899f
6 -8 -34 564552
-17 2 23 828d7c
-31 1 -24 95768a
-28 2 24 ad9191
-28 -22 -1 508f97
-29 -13 -13 a0a0a0
-42 -5 -22 cd76dc
9 -7 -30 9d9085
-23 0 3 d75e66
9 13 -40 d78a93
-3 -26 10 565a87
9 1 2 704284
-33 5 11 cdba4f
23 11 -7 db59c5
-4 2 -1 dfa27b
-42 31 0 909cc8
-2 0 -8 dc5d9d
-7 -6 -7 5ee1bd
18 -14 17 8c27b1
-9 0 0 72a577
-22 20 -23 cccf6a
-1 14 -25 ce8daf
-12 14 16 905367
2 -19 14 903b8b
-13 -8 11 6f4c61
18 11 -3 c73989
-43 27 -13 9da6d9
6 11 21 706191
-15 3 -16 b0b2ff
-15 19 -3 8c5f78
18 -3 32 6b467f
12 27 2 ce8daf
-28 6 -22 d8928f
6 -10 -42 ffc092
20 -7 -11 4f325d
14 -3 5 762d98
-23 -23 -12 6e8eaa
7 -51 74 be6ac4
-41 5 0 a04b88
8 8 -23 603980
-35 4 -23 a0a0a0
3 0 -18 4b34a2
-43 20 -12 ad7a8b
4 -8 24 4f6170
5 24 13 3977b3
7 16 -10 642078
-36 3 -12 f3986b
-21 18 -1 c6f38e
-12 -13 -6 a0a0a0
27 -5 -5 ff6c9f
-20 -13 20 84654c
-28 4 -21 d8928f
-6 14 9 ad697b
8 -26 -1 bb80a1
-26 -13 -10 5f3a90
-9 -32 0 43799f
-12 -26 5 652be0
13 -23 6 483bc1
-4 7 13 ad697b
-8 -26 -15 6f576e
-23 13 17 ad697b
28 -14 -19 413463
-25 0 10 a0a0a0
-20 -9 2 ad697b
11 0 -34 a0a0a0
8 12 -12 94243f
-29 7 10 ad697b
25 1 1 3f4549
-3 15 20 69ddb2
21 5 -5 432836
-16 -33 -21 a0a0a0
-35 10 -15 95768a
-21 18 -21 ff6884
-25 7 -28 947a91
4 15 -4 b82340
-32 8 24 d55fb3
-32 33 -8 a0a0a0
38 -12 -7 9f7891
4 0 -10 5c59b9
7 15 -9 d78a93
-20 27 -23 a65fbb
-23 -18 -3 cd76dc
9 17 -18 ff8ea6
6 33 -2 7570c0
30 1 13 9e3e64
-8 16 11 ad697b
7 -3 -4 a63254
-3 24 -7 6162a2
31 2 4 622f50
0 -9 -20 40a492
-24 25 -9 a0c552
2 25 4 85a3d5
-14 -9 -7 9a555d
-52 -9 1 3a4968
-25 2 -33 619845
-39 -1 23 a0a0a0
-24 24 0 8b50ff
-8 -19 -2 8b6ed1
-13 -4 27 ae6953
-25 -6 -7 ad697b
-2 10 -2 b037d7
13 10 -7 d78a93
-27 -7 -29 82a45c
22 0 21 802438
-29 -3 22 ff8e71
0 -19 14 903b8b
-17 38 -16 8b9b69
23 -1 0 33539c
7 16 -23 4246b8
18 14 -14 d78a93
15 -11 -8 ff2981
-9 -20 2 896842
22 11 11 6fb2bf
-25 14 -28 80754f
-7 0 -8 569ed2
47 0 -8 a63254
-1 -14 2 462864
34 5 21 4f325d
5 3 1 75a4ae
-31 6 11 ad697b
14 -8 -27 9ddf6a
24 4 3 33539c
0 -6 -5 d78a93
-16 -9 6 9e79a3
9 -1 -16 4b34a2
10 28 -10 ff6f88
32 -13 -14 8556bc
-25 28 -7 748d7f
20 -28 -24 79435c
-16 38 -16 8b9b69
5 16 10 5ce8ff
0 10 -3 dfa27b
24 12 -23 d58778
-44 41 -17 a0a0a0
-2 -14 5 b57e9f
-23 6 26 b28b7d
11 1 -30 6f576e
-14 19 2 d6b2ba
-2 13 20 ea6f9f
32 -6 6 7c4182
23 11 -4 8f1f4c
17 -7 -11 9c3872
-3 -19 -4 488330
-8 6 0 ad697b
-7 -2 27 738582
20 -9 7 734c7b
5 -20 1 d78a93
-38 -1 -6 60617b
24 -27 0 896985
-29 6 -27 aea67f
-42 -18 4 44a6a1
-13 19 -32 ffd751
-32 10 -18 a1b280
-3 -21 16 544938
9 0 -2 7157a5
-6 6 23 7f525e
-19 11 -15 7741ae
-3 -6 -23 52456a
-2 17 -23 7863ce
-35 22 -8 a29986
12 0 -3 3f4549
-34 -8 -11 8fde95
-11 14 0 57419b
-12 0 -21 ca6b6f
18 -13 -28 5b7b97
4 19 -20 ce8daf
-22 12 -23 a0a0a0
-5 0 -6 fa9994
-11 14 -22 96c88a
-12 -14 7 ad697b
-21 0 -1 ff4c62
-20 11 -24 ecb7dd
-37 -4 -7 917abf
-35 17 -16 a0a0a0
-14 -6 23 8e657c
-29 -17 -9 cd76dc
-21 28 -5 6d948f
11 0 9 704284
-27 26 5 627294
-28 -18 -6 3db277
-38 17 0 6e8e95
7 -35 -1 88517e
-4 29 14 a0a0a0
1 -20 27 6d6797
15 9 -8 be90da
-16 2 26 817370
10 11 24 7f2c71
-19 -4 28 a0a0a0
4 9 0 684196
31 -9 3 d78a93
-28 19 -38 a0a0a0
0 14 11 744b7c
-43 7 -20 bf7998
-11 0 -22 80754f
-10 -29 0 88586b
12 10 25 ce8daf
-17 -3 -7 a0a0a0
30 9 -17 ff6fbe
7 -33 0 734c7b
-8 29 3 9eae64
8 9 -7 482a68
-21 -5 -13 ffb796
10 -11 -1 714e85
-13 -9 6 c19b95
-39 -16 0 af8356
13 18 -13 413be9
-9 -14 21 6f4c61
9 -20 13 5f25c5
-36 -3 -5 a0a0a0
-28 26 -13 ff3f96
-24 -20 -21 6e8eaa
38 -16 -17 6fa46f
-34 1 -10 95768a
-17 30 1 da7366
-29 24 -20 5dcdb6
0 24 -2 ae67df
-14 7 15 b8ceb4
-6 -11 -3 2a89d8
28 25 -10 9355a5
8 -11 11 844e5b
-1 26 0 b5b88f
7 2 14 704284
-29 33 -3 9b94be
-37 0 -24 488554
-46 -13 -4 7741a3
-30 19 -3 ff6cff
-17 32 -22 7daab5
12 -9 6 734c7b
26 -17 13 48374a
21 -11 4 4f325d
-16 9 -25 8f805f
3 -12 16 444a5d
-6 4 -2 dfa27b
-13 35 -29 7284ff
-11 -8 -2 a0a0a0
6 17 7 899ca2
4 -21 -5 a0a0a0
-8 0 28 ad697b
9 -2 28 734c7b
-24 25 5 a0a0a0
-2 -23 24 6162a2
-17 1 5 b34674
9 -11 20 293250
-9 -12 18 ff29ce
-10 -10 -26 90cb64
-15 -9 20 54365b
-16 11 12 925391
1 -26 15 7b2866
-21 -2 -25 6d56a3
-14 -25 14 896842
-17 1 24 b48c7a
-27 16 -34 787fff
-31 14 -18 ff558f
-17 -1 25 ad697b
-9 19 -3 57419b
-15 10 7 da7073
-12 6 -7 2885ec
7 12 16 722147
0 -13 -24 c1dffb
18 -2 14 5e3c26
-4 4 -46 a0a0a0
26 17 -20 ff9177
0 11 23 a76178
18 -19 3 896985
1 13 18 af4eff
-32 15 -4 a0a0a0
-28 -4 2 699a60
-4 5 28 ad697b
27 13 -21 d78a93
-16 20 -10 737785
27 -16 0 d78a93
20 1 11 4f4b3f
-30 1 -4 a0a0a0
-31 3 0 ad697b
27 3 -3 693e50
-5 -24 -21 6f576e
-13 -25 -8 6f576e
-15 -4 12 ad697b
-8 5 -15 92d4e7
19 17 -8 353a28
19 14 1 9a3784
-40 -3 -4 b2ca88
-19 -27 1 652be0
-19 19 -5 ad697b
-23 -3 -15 5dd9c7
-1 -11 6 ad697b
-3 26 8 b7d3c4
-16 -16 0 c886f1
-40 8 -20 b586da
0 17 -33 ff6cff
-12 -4 -26 639ae9
0 -20 -3 ab3ec1
-22 21 -34 8e6a54
4 10 -25 869dff
-17 30 16 747d63
-20 1 -27 a0a0a0
-16 -20 10 6162a2
-6 0 3 ad697b
8 -24 -6 9042aa
-21 0 -20 ea868a
12 -20 -2 734c7b
8 16 -18 aa6890
9 7 1 6162a2
-7 24 1 9ca9ab
-3 22 0 b66f72
3 14 -39 c89e9d
20 8 24 758ae5
-27 29 7 799060
33 6 -13 60244e
-20 23 -11 737785
0 3 9 ff5975
35 -7 5 462b72
-32 -3 -3 a0a0a0
-52 14 4 45608f
-7 25 9 aa77c0
-1 -11 -2 ff64ff
-9 26 15 75e3c3
6 -22 1 747395
-16 -1 -20 c57862
-17 12 6 ad697b
-18 27 -17 daa794
7 -1 28 704284
-31 -7 -19 cd76dc
1 15 -1 761f6a
-18 18 19 a0a0a0
-7 -2 -6 a0a0a0
29 -10 -27 887459
0 9 37 514b63
-25 24 -14 90a3b3
-22 4 17 61b7c0
-17 -16 7 417255
-26 21 -24 a29584
-23 16 -8 697cd6
-8 30 -32 a0a0a0
17 24 -18 b7cb93
6 21 9 a0a0a0
-26 15 -28 80754f
-17 28 4 e1ff37
-10 13 -35 a4aeb1
-1 -17 -4 822150
-28 6 1 7b4fa2
9 -1 -12 fb91ec
-31 36 7 8b50ff
0 -12 17 78344b
-5 -18 19 544938
0 10 17 5d9ccc
-11 -1 31 b8ceb4
-5 0 -19 a0a0a0
-16 -4 -22 a55795
-13 22 -9 ecb7dd
0 25 0 ff7eff
8 11 -22 ce8daf
-28 -1 8 718895
31 11 0 4c302f
-10 15 -3 b58aaa
27 -13 -12 a84591
0 -8 1 ea67ff
-1 -17 -33 613bee
-5 -16 -21 817988
13 9 -37 d78a93
8 14 -22 e999bb
-30 5 5 679a84
-20 23 15 747d63
1 26 -30 d45e7c
-7 -20 -7 6f576e
-6 -7 -10 dc5d9d
-42 14 15 66629f
4 11 -17 899fff
25 -9 -21 6e3b5b
10 14 -6 ff90c9
30 10 8 d78a93
-33 20 10 9ca9ab
-33 -21 0 60617b
-19 21 10 a0a0a0
4 -11 -3 dc5d9d
-36 -10 12 da9584
-29 3 1 776a9b
-10 5 -10 5575ff
-31 19 -21 83dd6b
-5 -11 -12 6f576e
-26 20 18 b9e048
-5 -13 14 6f4c61
-27 34 -13 81849a
-20 -4 -48 ba7d89
9 -18 -37 535081
-13 18 -39 ffd751
-23 23 -27 a0a0a0
-17 9 -31 a0a0a0
-6 2 -27 ca6b6f
-17 8 6 ce8daf
31 -20 1 7d6b6c
-22 6 -22 d993b4
-3 24 -1 97b2ed
-8 7 -9 6f576e
-2 6 3 57469a
-19 36 20 abaaff
4 -4 -32 9d97dc
-9 6 -5 6fb2bf
0 -2 -42 a0a0a0
36 -18 -10 49384b
0 6 19 ce8daf
9 -27 -2 973091
-2 -19 6 7934be
20 1 -15 ea587f
-4 29 -16 aa5fae
10 -23 -13 726d48
9 -12 -27 a0a0a0
-3 7 15 ff6fc7
18 0 0 33539c
2 18 7 b58aaa
4 12 -15 9fae71
-14 -3 19 564ec5
-37 23 -21 6d948f
5 -2 30 7f2c71
11 -27 -1 953771
0 34 -5 7bb3bf
-27 38 14 8b50ff
-27 23 4 ff8262
-23 0 -6 74c4b7
19 -10 28 734932
-4 -11 -14 9a555d
-25 23 12 6d4b76
-3 41 -28 ff6871
5 -5 -25 95b8b1
-26 -8 6 da9584
18 -18 8 734c7b
-13 -3 28 ae6953
-28 19 -1 ad697b
4 34 3 b7d3c4
-22 17 7 dd76a7
-12 18 2 dc7484
-7 -4 -2 4c8f9a
-11 -36 1 4951ba
-16 -37 -10 43799f
-17 8 11 686951
3 -26 6 5e78ac
-35 -9 -17 cd76dc
-24 17 -4 6d948f
0 2 3 86285c
0 29 3 b7d3c4
2 3 -36 cb9c76
6 -7 -30 dbb6c3
-11 26 9 7d5a96
-19 1 -22 c5b68b
-26 20 -7 ad697b
0 -26 -20 8e3d8d
-15 23 -28 a04c48
17 0 -26 d39286
-34 20 -11 a0a0a0
-11 -2 11 ad697b
-38 13 -22 a0a0a0
-16 18 -2 ad697b
-21 17 -5 a449d3
12 -4 -3 ff8553
-15 -2 5 ad697b
-10 5 -41 dfdf83
-17 25 7 c19b80
-15 -13 -20 a0a0a0
9 8 -6 a0a0a0
31 0 -1 2f3176
12 31 3 ce8daf
-41 -22 1 44a6a1
-3 -4 22 925391
-21 7 24 6162a2
8 0 -14 a0a0a0
-19 6 25 ad697b
-7 -26 -1 5e5298
1 1 2 8971b3
-10 15 -17 ecb7dd
-9 11 -11 bed5c7
-20 11 12 da7073
-5 28 -4 9343b9
2 -30 -24 b93e5d
-13 14 -13 859ecb
-4 -27 9 8b3389
-37 21 -15 c156a0
-14 -7 -4 9e79a3
-30 22 16 d55fb3
18 10 3 6fb2bf
24 16 -19 ff6fbe
11 0 3 742749
15 -25 -22 6b2274
-3 7 -22 a0a0a0
-42 17 15 ca8e7e
-10 20 -2 6543a6
-4 20 28 ad697b
-28 3 -2 ca8e7e
11 -17 11 4f695f
15 -14 -2 c2b4c9
1 -3 -48 535081
6 -25 -12 734c7b
-13 15 13 ad697b
33 29 -14 9355a5
-27 28 21 69a656
-21 22 -8 6d948f
13 -11 3 86539a
-20 38 -6 a0a0a0
-32 38 18 676ad7
5 -5 -8 706ece
25 -17 -15 87424c
10 -6 -33 dbb6c3
-26 7 23 969286
-9 20 20 ad697b
4 29 -14 a8637f
12 3 -26 aa86ff
-17 32 0 a7d975
-12 -3 22 6d64ad
23 13 -2 cd85b4
-7 -9 17 ff29ce
10 22 -3 b8aad7
2 14 21 734c7b
-38 0 -4 776a9b
20 15 -25 e9867f
-1 4 26 925391
-27 32 -11 9b94be
-21 -23 0 80724c
-37 -7 22 be596b
-11 13 -2 dc7484
15 0 9 df4792
15 1 7 6531dc
23 2 18 52809d
-16 6 14 686951
-22 -16 -2 508f97
6 -1 13 4d2b71
11 6 9 645fc9
15 1 -23 d78a93
-34 32 12 504061
-3 15 -35 d78a93
-21 15 -5 df60a2
-32 7 -1 679a84
-20 6 -2 ef9c4a
-33 -7 -7 6f576e
-11 25 18 69ddb2
-40 -8 11 da9584
-26 -6 6 43799f
-12 -2 -39 cb9c76
-3 -26 15 895d51
-6 18 0 8b2f61
8 13 7 6fb2bf
15 6 -22 cc77cd
-19 -9 15 ad697b
-13 32 -1 cfe9a9
29 2 -3 c984b4
28 9 8 d53b6c
-22 8 -23 aea67f
-29 41 -1 a0a0a0
0 -24 13 713293
-14 16 15 ad697b
0 17 -15 be90da
-4 6 -33 a0a0a0
-23 -10 -3 7f7689
25 31 5 a0a0a0
-20 23 -4 f9c1f4
-24 -12 19 7b91aa
31 -12 -2 6214a2
21 0 -1 503847
-18 -7 18 6f4c61
34 1 -23 ed5b7b
-4 8 -7 6fb2bf
-5 -8 37 73418e
-27 -11 0 47753c
9 18 -11 c871bb
-3 32 -21 9468ca
-4 -10 18 704284
6 -11 -25 a0a0a0
-9 -43 3 43799f
-18 5 25 828d7c
-8 31 4 ea8bd9
-27 -6 13 6f4c61
12 -6 -7 8e1c62
-22 8 5 ad697b
-7 -19 12 80348f
-18 32 0 af52d2
10 9 8 42fffc
-12 13 -7 4d53b1
-2 0 -19 8b75ac
0 8 -25 d78a93
20 7 12 6fb2bf
-12 -29 -15 d6846c
-25 -1 13 ad697b
15 0 7 2fcaa1
-10 -12 5 7c997d
-38 1 3 a0a0a0
-8 3 13 734c7b
-14 -28 1 6364c0
-26 -7 7 6162a2
15 -26 -1 3d3882
33 -4 3 522d78
-21 -15 -5 6c7680
-7 19 -28 59526c
-35 23 4 a0a0a0
23 10 -5 cd85b4
-12 -11 24 704284
12 1 -35 a0a0a0
5 7 24 a76178
-8 -15 -15 6e8eaa
-3 -22 2 6b57ed
29 -9 -15 bda8b3
8 -2 10 734c7b
-15 53 5 9591bb
-7 16 -26 9a764d
-31 -36 0 6e8eaa
6 14 17 ad697b
17 8 -6 4d49ff
12 13 -36 d78a93
2 25 5 5fc56e
-9 20 -14 cd9d70
15 -3 17 7a2852
-11 41 4 a7d975
-14 -2 -28 52456a
-9 -23 -8 6f576e
-13 31 -48 454edd
-21 -12 -27 bb8f72
9 1 4 8e9237
-19 10 -3 5174da
2 16 6 6b2d4d
13 11 0 514c33
-16 -13 -28 a0a0a0
10 12 -3 be90da
-5 4 8 979566
-10 7 0 a29eff
-10 14 17 ad697b
-1 0 8 8d6a95
-26 -13 3 ffae87
-28 37 -11 a0a0a0
-14 -36 -1 32724d
-26 -8 11 6f4c61
-4 -25 14 3a445b
-11 -20 -25 ffb796
14 15 8 6b6357
20 -21 5 574294
5 -3 23 64276e
5 1 -12 ff90c9
18 -4 -16 dbb6c3
13 -10 -23 4a8298
-11 21 -15 a8fcca
0 4 17 895e71
-7 -6 13 b38554
-3 15 29 a76178
14 -5 -7 ff8f60
36 -1 0 d53b6c
-14 -3 11 ce8daf
0 5 -2 a0a0a0
7 -27 -12 734c7b
-8 -2 25 ad697b
-11 17 -30 9a764d
2 -8 -40 444b74
-11 27 7 ce8daf
-7 34 -10 b7d3c4
-2 11 27 83dd74
19 0 24 9ac5e1
0 20 -4 777993
-29 21 -10 8986ad
0 -20 -19 a0a0a0
-16 3 25 ad697b
-15 -2 30 ad697b
-3 -21 18 713293
-7 -9 2 4c744b
11 1 -23 6c778c
-10 -19 19 6f4c61
-8 0 9 828b9a
-17 43 -11 ce8daf
2 -1 28 7f2c71
-5 7 -5 567c3c
-29 9 -9 84474f
16 6 28 ab3971
-32 11 -22 a0a0a0
6 -9 -9 86515b
30 0 -14 d78a93
-13 -7 23 6f4c61
-1 26 -3 ce8daf
-6 9 10 cf6761
-2 -30 -2 88586b
0 -16 6 586b61
-1 -1 -15 a0a0a0
17 -16 -18 7e8e9b
-13 21 17 6e5163
-5 -16 6 721e78
-2 -9 3 4f9fdf
14 8 16 2a4f5c
-6 -7 -13 d17b75
-41 -9 13 727c5a
5 12 -10 3448ff
24 0 -14 ff90c9
14 16 -9 a8d391
-32 1 -10 96a878
-21 13 -28 ff7d7a
-2 -15 -19 a0a0a0
3 19 -6 60677e
21 20 1 704284
-10 14 -28 a0a0a0
-15 18 -5 b7d3c4
-28 14 -18 b9daab
-25 -29 -4 6e8eaa
-9 10 16 eb71c6
13 0 -24 cc77cd
3 -12 0 a75fd2
-6 -17 18 953f7e
8 -9 -17 706ece
-5 -18 -5 523e66
-8 9 20 a0b474
22 -15 -13 87424c
-18 35 -7 6d948f
15 3 -15 482a68
-30 -7 6 7f7a63
-5 -29 -11 43799f
-11 5 25 ad697b
-52 -12 0 60617b
-15 11 25 ad697b
-13 -23 -11 6f576e
8 -16 -27 7b89c4
-13 0 6 ca8e7e
-19 0 7 da7073
-23 -12 -2 843a75
2 -12 20 924e61
-26 10 21 61b7c0
-3 36 1 85a3d5
6 -10 14 4f586b
1 31 -23 cd9d70
22 3 -2 4e4a80
8 1 -32 a0a0a0
-5 -10 11 734c7b
-36 10 -13 655451
-24 6 4 ad697b
-13 -16 32 6f4c61
0 23 -4 4c4aac
-38 17 -10 ff9090
-27 -1 -13 c0c28a
-23 21 1 b9e048
8 5 14 e73b3e
-7 -9 -2 565a87
16 -3 -3 c3c3ff
0 -6 3 ad697b
-26 13 0 b5ffff
-35 21 8 7ac1b4
-15 2 -9 4d9af8
-16 6 1 48528b
9 -2 -29 9d97dc
28 8 -10 d39286
-13 10 18 c48954
-18 0 10 f16a62
-16 42 -11 bbadf6
-25 31 -15 ff8994
-32 23 -6 9aa53f
24 11 5 4f4b3f
-35 20 11 909cc8
2 2 -33 a6276c
-5 -15 -1 3d56b4
-3 15 5 935f51
-20 4 -15 4d9af8
-29 -32 4 836d84
-1 32 -30 59526c
-31 -12 -8 7fc472
7 -11 -24 d78a93
-14 6 -34 dfdf83
-30 26 -10 6d948f
-12 -35 4 491bc5
-14 16 31 514b63
-16 -10 0 c65349
-22 25 -23 d9d861
-23 15 -3 a449d3
0 10 5 856b82
-13 -11 -18 a0a0a0
-15 15 21 69ddb2
-11 -15 3 5e2b42
-26 -4 6 c76946
-4 -31 -18 69c0d9
2 -4 30 704284
18 -13 -12 865698
-8 7 8 b131a1
-22 -4 6 8a767b
-4 30 0 85a3d5
-3 -13 7 b57e9f
7 5 -37 ffce83
11 -16 1 d78a93
-16 26 10 cdeef3
-7 17 -21 789db5
-35 -4 0 776a9b
-13 -9 -6 668ca6
-20 -11 -5 6f576e
-7 24 -5 4cff55
-25 34 11 ae3fff
-37 1 22 79c4c8
-5 6 -8 734c7b
-6 13 -11 6b499f
21 3 -6 ce8daf
28 27 -8 d78a93
-18 4 15 da7073
6 3 20 808cca
20 -7 -7 8a77e0
-16 35 -10 ce8daf
8 -7 17 66406f
-4 29 -27 b5c0d5
-14 16 19 69ddb2
15 -22 15 483bc1
-12 5 27 af4eff
-35 2 -15 80454d
-16 -20 3 4e20c1
-5 2 -34 cb9c76
7 10 14 5d9ccc
12 2 2 722147
-51 -15 9 45608f
-20 30 -23 7daab5
-44 0 -10 776a9b
32 12 -5 4e3e5f
-10 -16 24 704284
-12 13 -43 847583
-15 7 8 f07364
4 -1 -47 535081
-21 -16 2 5a78ff
25 -5 13 734c7b
-22 13 -27 adb87c
-13 -1 -9 d281f3
-14 6 27 e06b75
-11 20 12 ad697b
-10 -3 -23 52456a
38 -17 -35 70aa82
-5 -8 14 524568
-20 17 -2 ad697b
5 25 17 925391
-10 39 -10 ce8daf
-8 14 13 ad697b
-16 -5 -6 60557a
5 -14 -6 4dffb2
-16 35 -28 ab96a1
-19 29 -13 7edcff
-47 19 -13 95cead
27 -11 0 6214a2
-45 -6 5 ca8e7e
-16 47 17 ad68f3
22 -1 -13 eaaa82
10 1 -12 fb91ec
-3 20 2 9e6cb0
-27 8 0 776a9b
29 1 -15 ff6fbe
0 -23 0 43799f
26 -13 -6 9bb265
-29 2 -6 8397ba
29 4 -14 60244e
35 -2 -31 cdadc4
-39 16 -35 d9be95
-9 -2 -5 73c0cc
-23 8 -2 ad697b
21 -15 20 925391
13 -22 -12 734c7b
0 -23 -24 a0a0a0
5 -1 12 6fb2bf
-11 0 13 f16a62
-10 17 14 ad697b
0 1 28 a25e9b
-1 13 -3 6942ab
29 -13 -4 ee8180
-28 37 -16 ff6884
9 24 -17 ff8ea6
-23 -11 28 6f4c61
-9 2 14 ff8d7e
-28 13 7 8eb998
15 -17 0 85a6eb
-40 -9 -19 cd76dc
-2 -21 -10 956fc7
-20 9 23 6162a2
-30 8 -5 d5ce76
-17 28 8 944762
9 0 31 734c7b
14 -1 -2 ffa65c
-4 19 -11 9cca76
8 -4 -13 ff8f60
-19 14 15 6a8d7e
7 36 -14 a0a0a0
-25 -6 19 ff82ff
8 -1 -22 c2a96b
-5 -6 11 ad697b
-8 -17 6 80348f
0 -6 13 4d3282
-33 -12 -16 ff5686
9 -6 4 c9403c
-4 2 21 ff79e2
-24 -24 8 896842
-25 0 3 ad697b
-24 38 -16 9b94be
-6 39 0 ae67df
-19 4 0 b27998
-4 37 -9 b7a2bd
-33 21 -3 a46cb3
-29 28 -13 ff6884
-30 17 -35 787fff
-18 -27 -4 6e8eaa
-3 -5 23 6f5c57
-10 5 -48 a0a0a0
-18 8 -28 a295d6
6 -5 4 ff76fd
0 -25 0 6f576e
4 30 -5 7bb3bf
6 16 19 ad697b
-51 6 -20 60617b
-10 -14 0 a0a0a0
6 20 -12 a8d391
-21 3 -23 aa8772
13 24 -20 345ab3
9 -9 -34 dbb6c3
29 -3 11 3a416a
15 0 26 7f2c71
-10 23 0 843b42
-11 22 -38 a0a0a0
12 0 -7 6ba2c9
-1 0 -29 6595fe
-34 4 -7 a0a0a0
-45 25 -13 b5446e
-6 27 -11 88a4ff
-36 4 -5 c881bd
-23 36 -22 c1bec0
-3 -4 -19 a0a0a0
-9 9 -19 d341ff
18 1 -13 ffebe3
35 2 -12 624159
28 -21 -15 9bb265
27 7 -11 ce8daf
-20 32 -10 b7d3c4
11 24 -5 85a3d5
-9 5 11 ad697b
-15 -28 -8 63757e
4 16 -19 a367cb
23 0 2 6a3b44
14 -5 -36 a0a0a0
5 -9 -7 6bc8ff
-8 35 -8 6e63c3
0 21 -16 899492
-25 1 -26 81dfd4
-20 6 29 969286
-22 22 9 74ffb1
-18 1 22 ad697b
6 18 6 643068
-12 -13 5 721e78
-12 9 -33 a0a0a0
-29 19 -15 ff68f4
-14 4 -10 9476a0
-27 17 -22 a29584
0 19 2 5a6663
-10 0 22 99142e
3 -13 -15 803090
-3 -15 -1 488330
-14 31 0 b7d3c4
-1 19 17 4f7bbe
11 -4 37 40225f
-1 -22 -11 a0a0a0
-29 6 -11 d781ae
-34 -15 3 a0a0a0
-14 -37 -3 43799f
-29 2 -3 626a8e
-20 15 10 986f88
14 -21 -12 d78a93
15 18 -10 d78a93
-3 -35 8 5d4168
-4 -27 32 6162a2
28 -12 -15 d78a93
-10 -18 15 7a295f
1 -19 -1 b53688
3 -21 14 7b2866
34 2 -13 5b227c
-1 9 -15 a0a0a0
-9 32 -41 a0a0a0
-16 13 12 ad697b
-34 -5 7 b0a08e
-19 22 1 a592a0
1 3 -29 52456a
-39 14 -9 58ff1f
-31 -16 8 da9584
8 -13 -2 714e85
-14 1 14 c2a36d
-13 -11 -2 7886a6
17 -14 -20 a0a0a0
6 6 21 a65275
18 10 -23 d78a93
-28 -6 -8 a0a0a0
-7 -3 -16 8255a0
31 -5 -25 bda8b3
-21 4 -16 4e5059
18 -24 -24 79435c
-11 -1 -38 cb9c76
-19 38 1 ce8daf
-13 17 -3 6162a2
-13 39 -38 85a3d5
-25 -15 -7 cd76dc
-20 26 -7 748d7f
-44 -5 5 a0a0a0
-30 30 10 8b50ff
12 5 -21 a0a0a0
6 2 30 9c7894
-15 -2 -11 6993c6
-24 -6 17 d35f7c
0 4 -14 a0a0a0
-12 1 -33 a0a0a0
-2 -3 -30 52456a
-7 -11 14 80348f
-32 25 -38 a29986
24 -1 -3 3e6768
-26 12 -3 c6f38e
7 7 -9 a92058
15 -14 5 6f4c61
-4 29 9 747d63
-38 -29 -1 2b9eba
-8 30 -5 8e9dff
-40 36 -11 dc84ff
-5 2 -5 5a6450
23 6 -27 e9867f
-22 14 7 dd76a7
-40 9 -8 8d8cff
13 7 18 925391
-11 38 7 7f9071
-14 12 -17 ff7d72
27 -12 -30 9bb265
30 -18 -7 f08a8e
-15 -13 -23 a6afbc
-26 19 8 ba99bf
-23 -3 0 ad697b
-1 -27 -23 ae8cb4
-1 20 1 f288b7
-39 8 -10 a0a0a0
-11 2 34 da9172
-28 22 11 70ad44
12 22 3 e49cdf
-19 -6 -19 cd76dc
-34 28 -6 6e8e95
-6 -13 -20 5a6356
-21 -17 8 745348
5 8 31 9e6465
-27 23 -31 a29986
-16 18 -11 a29986
9 12 -18 60677e
-10 -9 3 636eae
-21 15 9 a0865a
17 -12 23 834f92
-34 -11 0 a0a0a0
-44 0 -12 b2ca88
-2 -14 -14 ab3ec1
-18 30 -14 a0a0a0
25 -3 -2 503847
8 11 4 a0a0a0
0 16 9 73d3ea
-7 18 -13 789db5
-11 4 -8 303fb7
11 51 -54 ffa476
-46 7 -10 60617b
-24 47 -6 a0a0a0
18 6 4 ff90c9
-31 17 22 a5924b
-8 7 3 ea6f9f
34 1 16 4f325d
9 4 22 ce8daf
19 7 -7 ce8daf
-31 7 5 ff584c
9 13 -30 ffce83
5 8 26 747f68
-15 -2 -2 7f618a
-17 -19 -11 6f576e
-26 -10 -13 aaa8be
9 -23 -19 7e6297
15 7 4 86539a
31 4 -6 4f325d
-41 -6 -7 4b7b5e
2 -31 6 88586b
-33 21 -6 4aa6aa
7 17 -34 c89e9d
-1 16 -13 8e1c62
14 -20 -4 734c7b
-22 8 15 5cac4e
-8 6 -28 ca6b6f
-6 10 -20 a0a0a0
8 31 0 ce8daf
-36 -1 16 79c4c8
24 -8 -11 ff6fbe
23 0 -3 d3b055
19 -25 5 5663ab
-16 8 23 ad697b
5 -22 -14 6f576e
-26 5 -21 ff6f9f
23 4 -14 94243f
17 -14 5 aa67c1
-20 1 23 b96a7e
1 1 24 613d7d
19 4 0 a870c8
-35 -10 -17 a0a0a0
3 37 -29 96b1e2
21 0 -20 4a8298
22 4 9 6fb2bf
-16 2 -38 a295d6
10 6 4 db79a2
-11 -6 9 56b743
19 17 -10 d78a93
-20 -17 -19 6e8eaa
21 -25 -1 87424c
-8 3 3 fa9994
-10 -11 9 575550
-5 10 16 ea6f9f
-16 19 -20 ff6884
-27 7 -17 a5d8bd
-28 26 -8 c9ced8
5 25 -19 246364
16 -26 0 734c7b
-14 42 -7 ce8daf
30 -1 0 2f3176
-16 10 7 ad697b
23 4 19 9159a3
-19 0 -34 a0a0a0
4 -12 15 78344b
0 -36 -7 8d4258
24 -13 -14 bc6e73
-33 19 -18 a0a0a0
-30 5 -3 96a878
9 -11 0 734c7b
2 -20 19 888a89
-19 10 -16 ce8daf
-9 0 -10 626e54
-3 -34 -12 a0a0a0
-23 7 -14 747d63
-23 -5 -36 619845
24 2 4 296ab8
23 11 3 821b30
-39 -4 17 da9584
6 -14 -20 872973
-20 22 5 b9e048
-9 9 -29 504183
-22 -26 4 896842
-12 24 -1 7d5a96
0 -24 -32 8548b4
-19 -8 14 ad697b
-33 -4 -13 60dcae
-5 10 10 ad697b
-17 -14 -29 a0a0a0
-14 -21 11 565a87
22 -3 15 734c7b
-4 -23 5 5c90c9
5 10 5 dc7484
24 12 7 622f50
3 -4 29 40225f
-7 -27 -10 a0a0a0
7 -12 -34 52456a
-32 23 -17 b76c82
-7 4 17 5aa881
31 2 2 3f4549
-28 -9 -9 60dcae
2 -12 -7 8a5947
-10 19 -13 c032c5
8 8 19 911c4d
8 11 -20 60677e
-9 15 32 a76178
-5 24 -21 e774ff
25 -15 9 a267c3
-8 4 4 9e79a3
28 12 -6 36312b
-23 -10 -6 5a6450
-14 28 -4 7d5a96
-11 -8 -15 b6d4c2
-18 20 3 e57aff
-34 6 -1 da4c7c
5 10 16 a76178
-14 33 5 cb8383
6 15 5 6b2d4d
-35 11 -6 a0a0a0
-18 -2 15 ad697b
-11 -5 -4 a86fe5
7 15 -5 ff8286
-16 28 22 c8bfc8
1 2 -25 a6276c
-1 0 -12 6ee4f6
0 7 3 25776d
14 -3 -24 7b8a96
-29 -24 -8 97ab97
-12 -19 11 6162a2
-18 17 7 754ca8
0 -15 -24 a0a0a0
-12 22 -14 ff6884
7 6 -7 704284
-6 -14 21 713293
-32 12 15 9ca9ab
-26 -8 -10 60dcae
8 27 -12 ff7cba
10 -2 -5 33539c
31 21 -24 d78a93
7 0 -31 a0a0a0
-24 10 -10 da8c75
-3 -4 7 4c744b
21 -24 9 5e2f9f
3 14 -12 ff94ff
17 22 -12 d78a93
-5 8 -25 c89e9d
14 -3 -16 ff6fbe
-11 13 17 ea774f
-27 14 6 b970c0
-12 -22 10 896842
-35 39 -8 d28bcb
-37 -4 2 ca8e7e
-40 17 4 a0a0a0
-17 5 7 b0556b
-21 10 -26 a295d6
-24 8 27 ad697b
-20 -9 3 727899
14 3 -1 ce8daf
21 -19 14 6d65ad
-1 24 -30 b1b4ff
-11 -6 -27 a0a0a0
-2 28 -12 cd9c9c
12 20 14 cd85b4
-3 21 -18 59526c
-38 28 -17 9da6d9
-9 19 21 6bd4b3
20 -11 -9 b898b2
-8 21 8 837e91
-6 -16 -33 52456a
-14 33 -14 5b8673
6 -18 -8 9e5a51
-12 30 4 bed5c7
-22 -14 -1 bf5555
3 -41 -9 a0a0a0
33 12 -3 2f3176
-29 23 0 6fa5ff
-1 2 -11 684196
22 17 0 5428e9
-17 -5 -4 5a6450
-31 24 -22 4d6678
-19 2 -5 c4ae8e
-10 -4 2 5a6450
10 6 -16 d368d3
35 -19 -15 9fb854
22 2 -14 823bb8
17 16 2 6fb2bf
14 10 -38 d78a93
-29 2 10 ad697b
21 6 -16 d78a93
-6 40 1 b68948
-37 3 0 a3d2ab
2 5 -7 bd5195
14 -17 -8 6b2274
-12 -4 21 8e657c
-12 -12 23 d23f52
-24 -7 -1 6f576e
19 -12 16 944586
-14 19 -22 be7f8a
27 10 -1 313468
22 11 -24 ffc680
12 -5 13 925391
10 14 -5 ce8daf
-7 36 -13 a65087
-27 12 14 627294
-18 -24 9 896842
4 21 -11 a8d391
-25 28 12 b9e048
-7 -9 -8 6f576e
-18 -12 -9 668ca6
-28 -17 -17 f47bc8
12 -10 27 36515f
4 -13 29 744b7c
-3 -25 15 f4237a
-4 17 -7 a0a0a0
16 -26 -5 d78a93
-16 12 -4 63abd9
24 -7 9 d78a93
14 -14 -14 d78a93
2 0 36 6e33a3
5 2 20 704284
-31 30 -14 87bcbe
1 -28 -12 922570
-39 13 7 a0a0a0
28 -6 0 413be9
20 0 28 96cd7a
-34 19 -34 4fbb5a
-42 -2 -16 cd76dc
-18 -13 17 b1626b
-16 31 -11 b7d3c4
-43 14 -23 a0bc74
-3 24 18 6e5163
-9 -26 7 d3663c
19 -2 3 4f325d
-29 32 -8 6d948f
-5 -9 16 ff29ce
0 -3 -20 ba9aca
3 -27 -25 5e3994
-36 7 32 8eddd2
25 -19 -4 914c8f
20 -24 -15 645e9f
-10 -11 28 6f4c61
20 -4 -9 ff6fbe
2 2 12 5f2e91
-6 9 -9 8c5f78
-9 -14 -2 7934be
-16 16 -5 a9a87c
-26 -2 -32 4ca74b
7 16 -26 cdadc4
0 40 -18 c24078
-25 6 -1 776a9b
15 -16 -16 c63c2c
-23 -11 -4 6f576e
-5 -18 -3 523e66
-31 12 -14 a0a0a0
-4 -27 -4 43799f
-15 -5 -13 bd2a4c
-26 18 17 5cac4e
6 11 -12 a5dadd
-20 8 27 ad697b
-2 -3 20 b8ceb4
-30 9 -5 a0a0a0
22 1 -16 8046df
12 -12 -6 ffa65c
-6 51 -9 c493e1
25 -7 -20 9bb265
-14 12 -22 a29986
0 -10 1 966338
-16 -15 3 a267c3
-5 -1 31 ad697b
-11 46 4 9591bb
0 -3 -19 ba9aca
-4 -12 -3 6f576e
-35 -2 -9 b2ca88
-29 26 -15 b76c82
-43 1 -20 c6c7d8
-13 9 -16 6678d8
-17 5 4 6a85a0
-26 -14 2 6f576e
-28 -5 -13 747d63
-18 -2 14 da7073
21 -5 -25 c0bd5c
-17 6 0 ad697b
15 15 2 96a8d0
10 5 -22 d78a93
20 -9 5 7a2852
-7 10 9 b0556b
-6 -6 -19 ffff93
-7 10 37 514b63
-25 -19 -9 5f3a90
5 2 12 5f2e91
-24 -13 -15 a0a0a0
25 0 -2 4d2b3a
32 -1 3 4f325d
-5 -17 -12 7e39a2
-1 7 -14 d78a93
-14 2 -14 a0a0a0
-1 -15 -17 d78a93
-11 12 11 ce8daf
30 2 6 6214a2
-29 7 -16 a4b2a5
-23 -16 16 6f4c61
-1 -6 15 b8ceb4
-4 -2 20 935567
5 -8 -13 c13cd2
-19 -15 3 4e20c1
-5 12 13 ff6fc7
-5 46 26 cbb276
-10 0 -6 5a6450
9 2 22 a6e4fe
-27 -10 -3 45608f
-23 -11 4 99328d
-27 -10 -17 ffb796
-30 10 12 ad697b
-32 12 -5 a0a0a0
-32 19 3 8a85b5
-29 12 -13 ff558f
-19 -18 9 896842
-2 -3 -21 52456a
2 -2 0 a0a0a0
22 9 -8 5428e9
-1 24 -31 7999ff
-38 18 -24 82ddcf
17 -19 0 ff8278
0 1 -11 4091a2
-6 1 -14 a0a0a0
7 -5 -13 934676
-15 -13 28 5f4b59
6 4 2 75a4ae
-33 -9 -15 587479
-7 -31 -10 9732a2
-29 26 -8 6d948f
-14 24 0 8b9b69
19 -17 4 8b18a9
10 -15 28 9e2b5a
-25 20 6 abaaff
-9 10 9 ad697b
-3 -5 1 7273e2
-3 20 -24 7ac7ff
-18 14 -15 cd9c9c
-10 3 19 68a2de
37 -11 -19 4e94ff
14 8 21 4d2b71
-3 -5 7 b76c75
-19 12 -22 a0a0a0
-35 -16 -12 aa43d9
-14 -20 -14 a0a0a0
26 0 -3 6c5eff
-30 -33 -1 6e8eaa
-25 22 -5 a0a0a0
-13 6 0 c2d2cd
-6 -11 -6 d74fe1
3 -7 -12 424286
-17 34 -2 8b9b69
-9 35 34 9ca9ab
6 12 2 834388
0 29 11 c33d8e
-30 -5 8 758167
5 -28 7 985cac
-32 -8 -13 cd76dc
5 10 28 7a7e81
-26 -11 -18 d27968
-12 20 10 ad697b
11 -5 0 722147
-28 48 10 ae3fff
-28 16 9 6d4b76
-6 16 13 a0a0a0
-7 1 19 b469b0
22 -5 5 372c3a
-14 -18 3 9e4961
-28 11 28 ad697b
-28 37 6 914fff
-15 -20 30 8e5641
10 -18 -7 9d4395
31 23 -20 f17579
-13 11 22 f06963
7 -23 -20 8e3d8d
-34 18 -24 b27aff
43 -17 -29 70aa82
-6 -10 0 9e79a3
17 12 -24 d78a93
-4 -10 1 c19b95
40 -1 5 2f3176
15 -6 19 9c253a
-19 -3 0 4b7761
-6 29 -26 8ed6dc
-40 -12 -6 95768a
-14 24 4 94685c
-12 8 21 ad697b
-26 17 12 747d63
-25 22 -13 b9daab
9 -17 0 ffa65c
-1 19 -3 ad98de
-14 9 5 da7073
8 -3 -4 29617b
-22 14 -5 ad697b
28 5 1 5428e9
28 -16 -8 914c8f
-9 -21 20 644550
-1 31 3 b0a6fa
-37 26 -42 a29986
-28 22 18 d55fb3
-16 8 -18 6591d5
29 -8 -2 4f325d
8 11 13 4ab5df
31 -18 -11 9bb265
12 -5 -7 9fb3b1
2 0 14 aa997c
-10 -37 -4 43799f
-8 -3 -14 a0a0a0
-20 -2 25 d9784c
1 -3 -22 93b68f
-11 10 36 738582
-1 -13 33 704284
-9 2 16 f94881
13 14 -3 7e3596
-14 -8 -12 9a555d
-24 -2 19 ad697b
-13 15 6 754ca8
0 -10 1 7e43f7
-13 11 24 ad697b
-34 32 3 a0a0a0
0 33 -14 a270a0
-5 37 -21 85a3d5
1 22 9 c33d8e
6 -24 -1 734c7b
26 -1 3 6a3b44
7 10 0 b9147c
-39 21 -34 779491
-22 28 13 747d63
1 -13 -21 dbb6c3
17 18 -18 84c67a
14 11 -18 413be9
-12 1 0 ad697b
-23 -2 0 85295d
2 5 -12 d38a9e
-5 -5 12 ec654b
16 -22 -13 d78a93
-36 6 16 79c4c8
-17 12 -3 ad697b
-29 21 -5 a29986
9 -12 -8 89a4a5
4 -11 1 dc5d9d
11 -13 0 734c7b
16 -16 2 734c7b
13 -1 -13 7165d6
26 -3 22 992654
32 -26 -8 834240
15 8 -3 dc7484
-1 -11 -30 5a4667
-15 20 -4 8c5f78
16 -18 16 483bc1
-4 21 -9 9cca76
-43 -11 -3 7741a3
11 -29 -13 734c7b
-32 -10 -27 c6c7d8
14 4 -15 78a5ff
-13 29 -25 866fa2
2 20 -14 ce8daf
-8 1 -27 a0a0a0
-20 2 6 ad697b
15 -21 -18 645e9f
-13 -23 -4 a0a0a0
-36 0 -31 81dfd4
-8 -1 0 9e79a3
-26 28 -12 5574b3
-12 0 15 f16a62
-3 16 -7 878edf
-4 29 11 747d63
-20 15 -4 df4155
-21 -20 7 da9584
-28 -10 -2 5a6450
11 -12 3 684b9e
-28 -20 1 6f576e
-3 0 17 ad697b
6 4 -13 dbb6c3
-25 -3 -2 a0a0a0
-22 -2 -4 a0a0a0
-29 42 2 a0a0a0
8 -18 23 861863
-13 10 -24 bed5c7
-19 -1 -15 b0b2ff
15 -3 25 502d51
-33 25 5 a0a0a0
-15 0 -7 9e79a3
-18 -23 2 652be0
32 11 -14 ff6fbe
-10 -37 0 43799f
-2 10 1 2a89d8
0 -17 2 8d4258
-25 -11 -14 614578
-4 1 -37 a0a0a0
-21 35 5 ce8daf
-5 3 -13 6f576e
31 -20 2 78234a
-12 32 -32 85a3d5
2 -33 -5 8d4258
-20 -12 14 8a7571
-4 5 -38 a0a0a0
-4 10 -7 9cafff
20 14 12 b59ce1
7 11 -13 60677e
1 -5 -36 ffc092
-14 18 3 ad697b
-20 7 27 7b5693
9 -33 -22 9e5a51
-9 -22 16 704284
13 6 27 758ae5
-29 0 -32 7351b8
8 -11 -5 706ece
7 -8 4 5366f2
1 -21 -18 b93e5d
12 13 1 856b82
17 21 -26 ff9a71
-12 8 -23 bed5c7
-19 -22 15 896842
-8 14 22 ad697b
2 41 17 a2abff
-24 16 9 ff68e0
1 3 10 47a1dd
16 -2 -12 693e50
10 26 -20 ff76f4
-14 43 14 8b50ff
-19 -28 0 508f97
20 -11 -13 5b7b97
-20 40 -7 ce8daf
16 10 -14 8046df
13 -16 -24 dbb6c3
-4 2 -26 8b75ac
-34 16 -11 60617b
-33 18 -11 a0a0a0
-14 -4 9 6162a2
-16 -2 -13 b686a1
-9 -11 -6 c1d196
34 2 6 623c6b
9 4 -9 b55461
-6 12 -8 918671
-15 -16 0 a267c3
-49 8 -8 a0a0a0
-20 -7 10 6f576e
4 -28 -14 6f576e
-12 13 20 4f81af
0 -25 -10 a0a0a0
-26 6 11 ad697b
-44 0 9 af8b5f
-24 31 -6 8fa088
10 9 16 4f81af
35 2 13 4f325d
7 2 24 925391
2 -2 -16 a0a0a0
9 -15 -5 734c7b
6 23 18 925391
-54 7 -23 f3986b
11 -9 -31 a267c3
-20 8 -17 a0a0a0
-34 5 13 ae9ac2
-4 5 16 af65a7
-14 32 16 b19ed2
8 9 15 925391
-24 15 -12 7daab5
-3 25 -13 994170
20 6 4 9e4067
-11 -9 -21 c05f5d
-30 9 -41 a295d6
-12 41 -13 cfe9a9
-27 25 -18 81849a
-7 -9 -13 676541
-11 -5 -27 ff9b5f
23 -13 -14 d78a93
-18 25 -17 6599c0
0 -9 -11 93d366
4 -1 -46 535081
25 7 -33 d78a93
-37 -12 -30 c6c7d8
-1 30 12 95ab8d
-22 0 -4 4f715b
-14 -3 3 94a8d6
12 2 -10 ffebe3
-27 -4 -32 a0a0a0
-19 -14 17 825464
19 13 12 704284
0 9 30 ac2f9a
-10 12 1 b2bf9e
30 4 -17 d78a93
39 -9 2 454046
-11 -2 14 6162a2
-6 -12 10 80348f
0 -10 12 953771
-1 9 -23 c89e9d
-38 19 -7 c156a0
-3 8 -19 ffaecd
25 0 -29 f67e75
-17 -17 14 4e20c1
-17 13 -31 ffd751
-12 18 8 94685c
-9 44 12 9ca9ab
7 -20 -22 8e3d8d
-3 14 33 323b3b
-21 -8 25 ad697b
-36 -5 -24 ab97cc
-8 35 -15 a65087
-5 12 -22 bf58b6
14 -4 -1 bb1e43
-15 -1 -24 a0a0a0
-2 0 -18 f48c67
21 -11 -22 9bb265
13 15 -3 5c1674
-20 34 -6 ffa1b7
1 16 -13 60677e
-10 -1 24 677992
18 -2 19 452631
13 11 8 704284
-15 7 0 ad697b
-25 16 6 b2bad7
-11 10 13 ad697b
0 2 7 ff5975
-12 3 25 ad697b
0 2 32 323b3b
14 12 -4 7f4779
-11 -25 -7 77879f
18 16 21 5f9a9e
21 -10 -23 5b7b97
23 -16 -15 87424c
2 6 -13 824b81
-7 5 -24 b8bd6b
-22 -12 -15 a0a0a0
-24 2 -3 626a8e
22 -6 -18 cdadc4
-35 25 -22 6d948f
-13 8 -28 ff7d7a
26 -12 -9 66476e
-24 27 -4 5587b1
12 -15 -18 8e3d8d
0 -26 4 763771
19 0 -15 9bb265
-30 12 -33 787fff
-31 19 -13 ff6f9f
6 31 -8 ae67df
8 -14 -23 ffc092
-14 -7 -8 a0a0a0
-35 7 -15 95768a
-13 30 2 dcd7c4
-34 0 6 886f9c
0 -23 -25 d5a0c4
26 -2 -22 7344ff
-22 18 -6 ff6cff
-29 9 -11 a0a0a0
6 -11 -6 944439
3 -17 11 80348f
9 12 12 6b2d4d
0 19 3 9e6cb0
-9 -8 0 ccc4cb
-15 34 -19 e2b2d8
7 -25 0 bb80a1
23 1 12 392b49
-9 -20 -3 6f576e
-28 -12 13 d35f7c
7 4 -21 d78a93
-1 -1 -29 4b5a55
-20 13 -9 a0a0a0
-11 20 5 94685c
-29 33 8 6a6464
31 -25 -25 c8f754
17 -17 -5 985cac
-10 24 16 93e9e5
-39 -4 5 a0a0a0
1 -19 -36 ffc092
16 -7 13 925391
-18 3 4 c76946
0 16 0 c6bf90
-15 -25 -26 ffb796
34 0 18 ffa65b
-19 -24 -29 a0a0a0
-13 7 26 68a2de
-9 5 26 ad697b
-19 31 1 ce8daf
-31 -21 -6 3db277
19 -27 -9 734c7b
4 -5 2 584368
9 38 -15 ae7580
-25 -12 -12 6f576e
2 1 11 704284
5 -8 17 66406f
-28 -14 4 652be0
29 4 -11 ded373
15 -28 16 303870
-6 49 51 9786cf
1 10 -34 d78a93
-22 15 -27 c792d4
1 3 12 52336c
17 0 36 7f2c71
-16 -28 5 43799f
-23 -12 0 6c583b
-13 32 8 747d63
0 16 0 7c145c
-12 25 9 4eb139
9 -4 -23 d9a470
-15 -22 0 57795d
-16 -5 7 796a56
9 -18 -5 985cac
-59 -17 -3 3a4968
-36 -22 -16 cd76dc
17 -26 15 425584
-2 -11 -15 a86248
-6 15 24 738582
0 -26 12 7b2866
8 -26 29 d530bf
10 10 18 ce8daf
26 -24 -6 813035
-30 21 -23 a079d7
-12 39 -11 cfe9a9
11 14 15 734c7b
-30 28 6 747d63
-16 39 -3 ffb382
31 8 -4 5428e9
4 -16 4 8a7244
-39 -7 7 ca8e7e
11 10 17 ce8daf
13 11 -33 4246b8
21 -19 -26 59618a
-11 -23 -16 543b88
-3 3 13 627d9e
-9 5 29 b87e5b
0 -18 21 895d51
0 -26 1 a267c3
-13 38 21 f4d980
-12 20 1 ad697b
-1 16 7 a7daff
-15 -5 -19 8b75ac
-20 2 -1 626a8e
-33 -7 3 a0a0a0
-2 -4 34 895d51
-36 -11 13 da9584
-3 -30 4 8541a9
-5 -9 -6 a95263
-10 -10 -17 8e6350
-2 21 -18 595c6d
-6 -9 -29 463692
13 10 -23 cdadc4
5 6 -10 704a72
-61 -19 5 3a4968
29 1 7 492a3e
12 21 12 a0a0a0
-11 -27 5 43799f
-9 11 -4 b08064
-31 -2 8 da9584
11 13 1 d04e73
28 2 -18 7344ff
27 -14 -2 9f7891
35 -5 -2 2f3176
-34 -12 1 45608f
-13 -10 5 ce8daf
4 -6 2 dc5d9d
-10 -1 -7 cc8ecb
-20 41 -25 7ac7ff
-9 -26 -3 3d3fd0
-18 8 -5 a0a0a0
8 -2 6 ffa65c
-28 14 10 989a5e
15 -8 -4 ff8fb3
3 13 -14 c6bf90
-31 -6 2 7f7a63
15 -9 -31 8548b4
-12 -1 -17 a0a0a0
23 26 -13 d78a93
-31 2 -8 825669
25 4 -2 313468
-27 1 -17 e78ba1
-16 32 -49 4d7ea1
-36 -7 -4 b2ca88
39 0 -7 5e3b5c
-17 31 -22 a0a0a0
-22 -13 14 8a7571
-22 11 -18 a0a0a0
-21 -10 -17 8e7697
-9 -24 -17 d5a0c4
-31 12 -15 d781ae
19 1 2 1e4eca
5 11 -14 9fae71
-37 40 -10 afaedf
7 11 -2 dc7484
-15 -22 -30 ffb796
-24 -13 -17 a0a0a0
1 21 14 c4e396
2 -13 -40 ffc092
5 21 3 eea6ff
-14 6 8 a8657e
4 -18 21 ff2e64
-29 -8 -2 5a6450
-43 -12 -3 45608f
-32 1 17 ad697b
21 23 12 ff79c7
4 15 5 645fc9
12 15 -30 b5c097
-24 3 -12 7f7a63
-20 25 -14 6599c0
-54 1 12 af8b5f
14 2 -7 ffebe3
-5 32 -11 b7d3c4
1 4 0 7daab5
10 -30 -14 734c7b
22 -2 12 9c8161
17 13 -17 cc77cd
5 -18 -2 7a43ac
2 -25 1 6f7dff
-7 31 -44 adacc6
36 2 -14 5e3b5c
-4 23 -25 ffd751
-8 13 -18 a0a0a0
37 4 -3 602b45
-33 7 16 9ca9ab
25 -7 -28 9bb265
30 -13 -31 ff7b5c
16 -9 6 a267c3
6 3 7 bda7b2
21 -29 -9 813035
-20 -7 -26 8767d0
-1 -27 1 8d4258
-13 2 -3 73c0cc
-2 16 -8 ffb0d3
0 -7 1 7273e2
-17 3 29 ad697b
-13 34 20 9ca9ab
1 -13 0 664cff
21 -2 -17 abcc75
-36 0 -3 3d8f4e
-18 15 1 9ca9ab
-6 19 11 e4ffff
16 -16 -11 dc5d9d
-32 -5 -5 776a9b
-2 19 15 6c3d59
-2 -12 -16 e4b866
-29 35 14 c48e97
22 -34 0 3d5b6e
-26 -3 19 ff82ff
-6 -14 5 a25a61
16 -19 16 5d2f99
-10 39 7 ffa6b0
20 -2 -31 c89e9d
30 -5 9 3f4a51
-28 2 1 a0a0a0
-13 8 -8 74caa7
-4 9 14 925391
-33 -12 5 699a60
11 -2 17 b8ceb4
-13 -10 -25 a55795
-34 12 -10 c956ff
-33 33 13 504061
8 -5 -34 564552
-35 12 -9 9aaf83
21 -1 6 392b49
22 21 -9 ff5994
22 13 -19 d78a93
-15 10 4 b0556b
-49 -3 -26 7aedce
23 -5 21 4934a9
-19 13 3 ad697b
-5 -9 4 9e79a3
9 19 15 ad697b
12 -14 -18 8e3d8d
-4 18 -11 9cca76
-18 0 -12 9e79a3
7 13 15 734c7b
-13 0 16 da7073
33 4 -10 df69fa
-13 1 15 d35f7c
11 -15 -19 995c42
4 31 -9 aaff3f
-9 7 20 ad697b
-19 -7 -25 ff9cbe
-12 19 -6 ff4d96
6 13 -8 d78a93
15 3 -30 a0a0a0
-2 33 -12 ce8daf
18 9 -31 db42a3
-33 21 5 627294
-20 -21 -4 43799f
-39 9 -3 95768a
7 -24 11 6e2c8c
-42 1 4 45608f
7 37 -15 a0a0a0
-45 6 14 9e8c55
-48 2 -8 7f6a63
-28 6 11 95768a
-12 7 23 ad697b
0 -10 16 676d3b
9 16 -25 b5c097
-15 -14 8 6f576e
-16 3 -6 c4ae8e
-47 -9 -16 b0ffa3
-29 -5 -11 7f7a63
-14 16 -13 a8fcca
14 -7 -16 59618a
-2 20 -2 e0bf9a
-25 16 -16 a0a0a0
-1 18 0 ff7d9d
-14 22 8 8b50ff
-29 35 11 8b50ff
-1 -31 -12 922570
-31 -7 -5 8342b4
1 1 8 e73b3e
-17 0 -10 9e79a3
16 -32 -10 6b2274
-20 7 -29 a0a0a0
3 -25 -14 6f576e
11 -18 -19 995c42
-30 -11 0 dac359
-14 -9 25 6f4c61
1 3 -17 be6ac4
17 -11 0 5a304e
23 -21 -6 913ea1
-14 19 -19 a0a0a0
-34 26 -18 a0a0a0
30 -12 -8 9484da
0 -4 14 734c7b
0 15 -22 89905b
-38 22 -32 a29986
-21 39 -9 d7b9e3
-3 -17 19 713293
-20 -10 -21 a0a0a0
30 0 15 4f325d
42 -10 18 925391
-10 6 -16 5935ab
7 13 13 ff58e2
-8 10 2 ad697b
-18 20 14 86ff62
14 18 -15 ffa6b4
-6 16 -4 5c83a9
-22 25 7 a0a0a0
14 -12 5 66547c
11 -14 19 6b2d4d
19 -20 11 d78a93
-12 34 25 f4d980
-10 -19 10 763771
-20 -9 10 ad697b
-6 -26 -10 7f42d0
-17 3 3 ad697b
-2 -2 -35 a0788d
-35 -7 16 a0a0a0
9 -3 -4 343898
11 0 17 69224a
-20 -9 -6 918262
-15 0 -9 9e79a3
2 36 -7 7bb3bf
-17 -32 -13 d6846c
-1 3 15 581a5d
-16 -2 28 a0a0a0
0 13 -9 897265
10 5 -31 7cdd8d
-11 -17 6 462d8c
-7 -13 -4 763771
-4 -16 36 7b4951
-11 38 5 b9e048
14 8 14 a894e4
-33 -6 -25 619845
-14 0 18 ad697b
0 -10 -24 927993
13 -20 13 483bc1
-26 21 27 d55fb3
2 -4 -35 a0a0a0
-4 -13 13 6162a2
-19 -23 9 896842
-9 -8 28 6f4c61
16 3 10 c948e8
4 11 23 a76178
-5 30 1 dcd7c4
0 -21 -21 84d468
18 9 30 7f2c71
12 -1 9 762d98
-23 14 -9 88599f
-10 6 -12 584f62
26 2 13 392b49
-5 -15 20 5f5346
-25 -2 -11 6ac199
-13 29 11 747d63
17 -22 4 7c39d2
32 15 -22 9355a5
22 -30 -3 913ea1
-34 0 -16 6b7a98
-26 0 3 85295d
-30 19 3 9c7044
-29 9 25 42559f
-16 18 6 754ca8
12 5 -25 c560c9
0 14 -15 7170b7
-17 29 2 6030ff
-18 -11 -24 a0a0a0
-28 7 -27 81dfd4
0 -14 13 4f6170
-7 8 -4 5d5f7f
-4 17 -28 59526c
5 13 -2 6f8fff
-16 34 21 abaaff
-12 19 -40 ffd751
-25 23 -8 a8826d
-45 -1 0 4b7b5e
7 10 2 6fb2bf
20 12 9 6fb2bf
21 -10 12 734c7b
-11 10 19 69ddb2
10 6 -24 89a8b3
17 18 1 eea6ff
-19 16 18 da7073
-11 27 -2 93a2a4
13 9 -31 ffce83
-9 10 -2 6fb2bf
13 16 -32 c89e9d
-37 9 7 ca8e7e
-42 19 23 747d63
-17 -17 12 2f28d4
-13 33 -11 79d371
-15 21 -39 898d86
1 -13 13 8890b5
-24 -26 5 a267c3
-40 23 0 a68e58
-4 0 15 af65a7
6 -12 -17 ff449c
27 -3 -27 706ece
-8 -2 5 ad697b
-29 -19 -27 d27968
-26 35 4 8b50ff
12 -7 -51 535081
23 -5 -17 7d68de
-20 7 0 69ddb2
-19 1 9 f16a62
-6 -1 -35 a7ab83
-20 0 1 9d4193
25 15 3 c473ff
-21 9 4 72dfa8
28 23 8 df49ca
-26 5 0 80724c
-6 -1 14 6162a2
2 18 18 ad697b
-20 13 18 9ca9ab
-1 8 -2 721d56
-16 30 -4 ce8daf
5 11 -28 cdadc4
-5 -2 19 8b7b3d
-11 0 24 b96a7e
-7 32 -9 b7d3c4
-33 15 -21 a29584
-44 -12 -2 45608f
-26 -7 6 5a387c
25 -21 -10 5b2d5d
5 -17 18 4f6170
28 5 -6 d65951
-9 19 9 ec7a75
4 -27 -1 665662
-32 15 8 63ce73
-32 14 11 747d63
15 -27 -5 d78a93
-7 -1 31 ad697b
-18 -8 7 ad697b
-23 21 -5 737785
-13 -21 -13 6f576e
-32 26 2 a68e58
-14 4 21 69ddb2
-13 13 12 4e4453
-8 -7 -9 8e6350
-27 13 9 be887f
-12 -13 -33 504183
5 -15 -8 594e5e
-7 3 18 6c5043
-43 26 -13 9da6d9
-20 20 0 697cd6
6 6 -31 d78a93
-10 -8 -12 9e79a3
16 17 8 ff59ff
1 22 -16 d78a93
-18 12 0 a36fcc
-23 12 -15 6397be
-35 -8 19 be596b
-13 31 -30 85a3d5
4 6 -45 c89e9d
28 -7 -7 5499ef
-47 -11 -1 45608f
-15 -13 1 a4548e
0 1 -12 c4a85a
30 5 -22 cdadc4
27 -9 -9 8a77e0
-40 16 -12 be86b3
-15 1 -20 c57862
-26 -18 -9 6d2c9a
-39 20 -15 9a5eb0
-21 3 -10 dcac7f
-10 39 8 8b50ff
0 -7 -32 ffc092
-28 5 -3 b17272
18 -8 -5 c2b4c9
-29 14 2 9c7044
-28 24 -20 4d6678
-31 14 4 627294
-25 -25 -4 d6846c
17 16 4 704284
5 36 0 85a3d5
2 -2 -32 52456a
-21 14 -2 7087e4
9 -1 7 60795c
-35 -1 17 be596b
40 -7 -21 ff7560
-8 2 26 ad794b
12 -4 -13 ff8f60
-15 38 -21 8e9dff
-36 25 -4 a0a0a0
-13 -9 -14 b686a1
2 -10 7 d78a93
-21 -16 -3 a0a0a0
-25 2 29 b469b0
8 32 0 b341ff
-17 -6 0 60557a
-1 -9 10 5b291c
-25 26 -10 87bcbe
-44 6 -13 776a9b
-33 21 -1 7aa4be
-33 19 21 747d63
-19 2 4 ad697b
15 -2 7 ff9cec
-4 -11 14 6f4c61
-26 12 32 ad697b
7 15 -23 d48772
-20 23 -13 b9daab
18 6 -23 d78a93
-9 5 27 ad697b
15 -36 -2 584b57
-4 -11 18 496e6e
-3 -8 -28 ffc092
-4 10 9 ad697b
13 20 6 a0a0a0
-20 -2 6 80724c
13 8 27 758ae5
-22 14 -43 968153
-4 -18 -25 dd8284
-28 43 -12 a0a0a0
-7 -14 -10 a0a0a0
-20 -5 15 ad697b
7 23 -8 7570c0
2 14 -30 94a3a9
-28 44 -1 a0a0a0
-1 11 34 514b63
-14 -3 7 ad697b
21 -15 28 465778
-17 3 18 ad697b
-2 26 15 a7daff
-4 27 -13 cd9c9c
-15 -13 -8 9a555d
1 -6 -29 8875c7
17 -5 0 3e6768
20 11 16 b59ce1
-40 7 -17 a0a0a0
28 8 -14 4f325d
-24 -17 13 6f576e
9 -15 18 888a89
8 2 -33 a0a0a0
-3 6 24 ad697b
-35 -13 10 a0a0a0
-18 -2 -33 cd68d3
-11 3 -21 a0a0a0
11 -23 17 5c36b4
3 8 -8 75ff9e
5 18 12 a0a0a0
19 -15 3 d78a93
-15 -16 17 6f4c61
27 -8 -10 ff6c9f
17 -2 2 ff9cec
-27 18 -24 d8928f
-1 27 -27 85a3d5
12 0 17 ff9caf
-14 -17 -8 8e48aa
-13 -4 20 8e657c
-11 -31 -11 6f576e
-52 20 -11 747d63
9 9 -21 aa86ff
12 -3 4 694091
-8 -18 -7 6741e2
-5 -2 -31 b08064
-7 15 -1 ad697b
-21 6 0 938753
-17 5 11 969286
-20 -26 -7 702590
-30 6 -31 619845
6 -2 -16 5a24e4
-14 2 -23 c57862
-5 -2 31 ad697b
-15 -18 -15 5f3a90
4 24 -26 85a3d5
-4 -13 10 385586
21 -6 -13 5c6791
-17 -18 -26 ffb796
8 18 -12 92264f
35 -2 6 4b344d
-9 -11 15 ad697b
0 -14 2 c44b2c
12 -6 -13 cb6172
-2 -35 4 376768
29 0 -14 7344ff
0 9 2 6c494e
-19 -6 18 a967a0
0 -26 3 6b57ed
-2 10 -14 97a1d6
-29 20 -14 82ddcf
-4 34 -31 59526c
-10 20 32 a76178
-6 39 -2 e1cea0
-15 -33 0 a0a0a0
-26 -16 -4 6f576e
3 22 -21 85a3d5
-8 31 -29 85a3d5
10 30 -23 d78a93
-34 11 -6 a0a0a0
-21 6 1 938753
2 -9 0 963c97
-13 -11 22 6f84ab
21 8 -20 9665db
-46 -3 -9 776a9b
-34 36 16 9ca9ab
-8 -14 21 6f4c61
5 3 4 4b6198
0 18 -13 ffa476
-15 8 8 a68385
-15 -33 7 896842
-23 6 23 9ca9ab
-23 11 -13 a0a0a0
-3 13 37 a76178
-1 8 20 ea6f9f
1 -10 8 4f3d2f
23 -21 4 b898b2
-1 16 17 48abef
2 -2 -19 4c4b4a
22 21 10 ff79c7
-15 -7 -1 b8b89f
-41 7 -11 776a9b
-17 17 -13 a29986
-25 10 -32 bed5c7
19 -6 10 734c7b
0 -21 31 4f6170
-41 19 -26 c85ecd
-22 38 7 914fff
-11 20 -6 8b5ecf
-8 24 -19 9b727b
14 -28 1 734c7b
6 7 24 a34d59
-20 -14 13 8a7571
-22 -2 4 8a767b
-24 -10 -4 ffb796
-4 22 3 9ca9ab
-40 6 11 af8b5f
-12 -6 3 755e61
-3 -1 -8 ff449c
-13 -27 -4 734c7b
1 18 16 356eab
-13 -25 -13 6f576e
20 22 22 cd85b4
-23 27 7 a0a0a0
35 -6 9 474265
-20 -23 11 896842
-12 -3 -27 fbd87c
-5 6 8 979566
26 -3 17 373c57
14 -19 -8 9d4395
-3 -17 -26 dd8284
-12 -12 22 6f4c61
-9 -7 -4 436f4f
-19 49 15 9ca9ab
-32 7 -15 b07145
-22 36 6 8b50ff
-15 27 1 b9e048
5 -7 -8 74a8ad
2 -5 32 825b6e
-29 16 -18 a29584
9 0 19 96326a
-7 24 -18 a8637f
31 2 -3 624159
15 -22 -7 734c7b
-17 45 9 b9e048
-11 11 11 493846
-32 -14 -4 6d765e
-17 -6 12 6162a2
7 3 -21 55848e
-3 -13 -13 6f576e
-33 -1 -4 b2ca88
-6 5 26 738582
-27 -7 28 6f4c61
-19 16 3 ad697b
32 5 9 2f3176
2 16 9 73d3ea
20 -21 -10 9bb265
-25 -16 5 da9584
-26 21 4 627294
3 -6 -31 9a9e81
-36 -9 -24 c6c7d8
4 34 0 b7d3c4
-15 27 4 8b50ff
-42 -2 -22 cd76dc
-38 -20 -4 7e8372
10 20 -11 9a6d81
13 20 -22 3e7bce
2 12 -8 678382
-7 17 28 7abd8e
-1 0 -15 bb8a6f
3 -2 -45 535081
7 0 18 6fb2bf
-33 15 -15 a0a0a0
-8 9 13 ad697b
18 -8 0 33539c
19 0 -27 85b1cb
1 -17 -6 626f69
-34 19 -14 7daab5
13 -22 5 454473
-9 22 -7 4460c7
-23 21 -25 ff6884
20 0 21 4f325d
-21 -8 -27 55cbff
-31 5 25 ff9ec9
2 -6 -3 676d57
-29 -4 7 758167
-11 1 20 ff8d7e
14 5 15 ff9caf
-31 27 -12 87bcbe
-22 27 2 c19b80
-39 9 -15 a0a0a0
33 -8 -7 ee8180
17 -15 -15 a0a0a0
-40 8 8 9ca9ab
4 -25 8 a267c3
-26 28 -22 bf75a8
-2 -16 3 455880
-29 0 -13 cd76dc
-4 -10 -20 634a92
-14 11 12 af65a7
-32 2 14 79c4c8
-24 10 -27 80754f
-18 7 8 ad697b
12 -10 -14 9e5a51
-40 -2 8 a0a0a0
-21 -14 11 ad697b
-9 22 -37 60a2a0
14 14 -8 c1b3bf
22 12 -21 4a8298
-20 -21 -28 90c17a
-29 5 5 ad697b
-33 27 4 747d63
-27 -17 14 6f576e
14 -24 -12 504da2
19 -33 -3 3d5b6e
25 -10 9 ffa078
-11 9 -16 8562ca
-25 14 -20 bed5c7
-35 12 7 6d4b76
-8 -5 -13 bd1e69
-41 4 -1 a04b88
-7 -1 15 6162a2
-3 47 -22 ff6871
6 -18 -26 4239bc
-19 -16 10 20377a
25 -1 -16 d78a93
-12 37 3 ce8daf
11 14 -18 d78a93
-6 30 -46 a0a0a0
-24 26 -19 7daab5
18 9 0 ff7be3
-10 25 -6 8255a0
-7 -9 12 763771
-26 8 -25 b36484
-2 -15 -18 ab3ec1
3 11 38 323b3b
-19 28 5 af52d2
8 3 -5 be90da
-22 -3 25 ad697b
13 27 3 ce8daf
-3 -23 12 3a445b
-7 -3 0 8077cd
-13 -7 -4 a596c2
-12 41 2 ce8daf
21 4 -19 bda8b3
17 -11 0 9bb265
0 6 -19 ff6cff
-21 -12 -5 6f576e
19 1 -3 6c5eff
-28 3 -7 d5ce76
26 -17 -2 914c8f
-9 16 21 ad697b
1 18 -12 be90da
-38 22 -11 64ae9f
7 -4 3 584368
-24 0 -1 9d4193
-21 -16 7 916081
-13 -7 6 b56580
-30 0 -29 73a55f
-9 2 -15 92d4e7
30 -8 -3 394053
-15 -7 30 b96a7e
-27 19 22 747d63
-4 -10 -22 be86a0
-14 -4 -26 639ae9
-10 0 -25 b6d4c2
6 -25 -18 803090
16 -28 -6 734c7b
-5 -11 -13 74cbc2
-15 -28 -17 4b558c
-21 -13 -15 6f576e
-3 5 0 567c3c
-20 -33 6 6329a0
-5 -27 19 704284
23 2 -14 9e5b88
-26 -6 4 ad697b
-28 25 -20 81849a
-5 -3 23 ad697b
15 -8 -33 a0a0a0
-16 -8 27 6f576e
-7 4 11 ff8d7e
14 19 -3 514c33
-6 9 17 ea6f9f
-4 21 -17 7779bb
-23 15 -13 e4bccc
-15 12 -5 a29986
15 2 -18 51506b
-11 11 31 514b63
4 -30 4 671e82
3 -17 1 763771
-4 -15 21 895d51
-31 -2 3 ff6851
12 8 -11 8ba6ae
-33 0 -3 8397ba
-27 6 3 ad697b
-24 21 -26 ff6884
-23 0 -18 cd6892
-18 1 -26 a0a0a0
5 6 -29 ffce83
-20 -21 -7 a0a0a0
-1 -24 -5 734c7b
3 -9 15 78344b
-9 -12 8 a267c3
-14 14 -11 71acb7
6 12 -29 d78a93
-13 7 2 8dd6fb
-18 -19 14 4e20c1
-18 19 -31 f15b65
16 -3 -2 f3f4c3
5 -23 11 98308f
-1 7 35 9c7894
19 27 -12 b7cb93
-25 24 12 80724c
-17 -11 16 7a5466
-2 -27 -19 8e3d8d
9 15 -20 7a6855
-19 10 -28 ff9f7c
-10 20 -14 ecb7dd
-8 0 25 ad697b
-15 40 2 ce8daf
18 -8 -24 4a8298
-41 20 13 747d63
5 -15 16 595759
8 13 -32 4246b8
-12 -4 -1 c38b4c
-6 -23 6 814159
-15 10 -37 dfdf83
-19 -15 20 5f4b59
-19 -6 22 6f4c61
-11 -21 4 462d8c
-31 18 8 a0a0a0
18 -2 13 5e3c26
-6 18 5 9ca9ab
-26 -15 -23 fe7448
-28 7 -24 715334
-8 28 7 9ca9ab
-24 -17 -24 d27968
-42 22 -17 c156a0
-6 18 7 ad697b
-14 14 -38 847583
-32 18 -28 dc7ea6
-27 -12 1 43799f
-7 0 8 af65a7
-42 1 -10 b2ca88
-18 16 17 5ec9d9
-9 6 -47 b8bd6b
-8 -19 -15 594a64
0 -9 -41 3d3d88
-9 6 3 ce8daf
-3 21 26 4c4683
-44 2 -16 60617b
31 -16 -13 4e94ff
-3 10 19 ad697b
7 3 -13 9ed8d1
-14 -4 16 e28a6b
0 23 9 5d9ccc
-3 -21 -35 8548b4
-7 16 -30 898d86
-20 0 0 7f618a
11 1 0 7157a5
-23 -8 7 ad697b
-19 2 -2 b2ca88
-22 16 14 9ca9ab
17 38 0 8e5794
35 26 -20 d78a93
0 4 -1 575266
-9 -8 -30 52456a
-11 31 -40 a0a0a0
13 -8 -22 4a8298
-20 0 23 b96a7e
-9 7 13 7d8077
-14 15 6 754ca8
13 -8 -8 865698
-24 18 -25 ffaa4b
24 0 -18 bda8b3
-5 -23 15 3a445b
22 1 4 413be9
-30 37 -3 6d948f
6 20 9 5d9ccc
-33 11 8 92b16e
-21 8 21 ad697b
31 8 0 d53b6c
-3 -9 12 a43477
-7 -31 -5 8b6bb7
-1 4 30 8b2870
6 -3 -1 a74f84
-20 -5 -14 9f72b7
0 -6 -4 dc5d9d
-36 11 24 d55fb3
2 -3 -32 a0a0a0
5 5 0 356eab
-33 29 -27 81849a
-33 22 -10 a29986
-8 14 37 a76178
16 -11 12 a33973
-34 5 9 886f9c
-7 38 -3 e1cea0
15 -14 -1 7f1970
-19 3 25 828d7c
13 -26 -9 44305a
23 13 0 514c33
-22 22 0 747d63
-27 11 0 8affe4
-3 2 -3 b0556b
27 4 12 41ffbb
-17 -7 -8 6850b6
-8 -3 -27 52456a
6 -13 -4 81bde8
-26 9 0 80724c
-36 21 -7 a0a0a0
16 -8 -10 d78a93
-15 13 32 89875f
-13 2 6 b56580
-4 0 29 817370
-29 3 4 a59785
22 -4 -2 7f56e2
-13 14 12 ad697b
-8 6 8 eb7170
-13 31 5 dcd7c4
-37 -19 -22 ac879b
-5 11 -17 918671
-24 -5 19 708b6d
-1 26 1 b5b88f
13 -3 -16 dbb6c3
14 -2 8 d78a93
20 -16 -1 b898b2
-54 6 -18 60617b
-26 14 23 a471cb
15 0 24 a26367
6 6 22 a34d59
2 1 -7 dd94fd
-1 36 -10 8e9dff
-20 -2 31 ad697b
-16 -4 -13 bd2a4c
12 0 -45 36385d
0 -6 38 704284
4 -15 12 78344b
-19 4 6 ad697b
11 -15 -2 a142d0
-19 15 5 c6f38e
-1 3 -24 a0a0a0
21 11 -23 ffc680
0 17 -22 ce8daf
0 27 -4 938fa4
2 23 -16 c668a9
-14 26 -29 a0a0a0
0 -18 -35 845ed0
12 -7 -24 995645
-4 9 2 b037d7
-21 12 22 6162a2
-35 3 16 e979ad
10 -8 -2 8755b0
-8 36 -24 ce8daf
-9 18 9 ad697b
-12 1 2 9e79a3
8 -10 -23 d78a93
-42 16 18 66629f
-27 -2 -2 cd76dc
-1 5 -31 a0a0a0
-22 31 -1 ffc1b3
-16 -19 -1 763771
23 20 16 ff58e2
-9 3 28 4a777b
38 -13 -7 ee8180
-3 34 0 ae67df
-11 -5 17 7774ea
2 -1 -13 775098
17 -25 -17 6b2274
-6 17 8 94685c
-25 15 -20 ab3eb3
11 -5 -8 d78a93
-18 -2 0 9d4193
-2 -19 -7 504da2
-13 26 -24 e774ff
-31 6 2 80724c
-18 -13 -3 727899
-43 -5 -1 4b7b5e
27 -6 -1 6214a2
-2 28 -30 71d6ff
-1 6 -6 6c494e
-4 -12 21 7f2c71
12 -8 -25 643484
38 -12 -17 7a9e99
-3 -19 -18 d08e8e
-1 26 -8 a8637f
-3 2 -29 c89e9d
8 0 30 9c7894
-19 -18 11 6f576e
20 0 -15 dbb6c3
23 7 -8 704284
-5 -9 11 ad697b
-10 19 -16 a64739
-21 4 6 6e9b97
-2 -22 0 8d4258
-12 10 -10 9ca9ab
39 -3 18 9e1dbd
-13 -11 -24 ff9b5f
39 -10 -14 ee8180
-5 -8 17 80348f
-28 26 -27 81849a
36 5 -8 20215c
-9 28 -15 85a3d5
-30 -3 0 a0a0a0
27 -2 -23 4a8298
-20 31 -27 7a8957
25 6 25 70609f
29 -3 20 58ffe2
-2 -2 -21 636c49
-37 16 -33 4fbb5a
-8 10 -27 ce8daf
2 -6 14 774345
31 17 -15 d78a93
-16 -16 -20 a0a0a0
21 10 -5 db59c5
-35 10 9 9e8c55
5 -5 24 744b7c
-7 8 -10 6b6f68
-7 21 -22 59526c
3 -14 28 744b7c
2 16 -2 896ca0
-8 -17 11 45c72f
13 6 -27 7b73d6
-13 5 -12 5f498a
-26 -7 15 b764fd
-6 -4 4 4c744b
-7 -11 -5 655896
-1 -27 34 6162a2
-19 -7 6 796a56
-24 19 -33 4d6678
0 -16 -34 52456a
-4 -17 -21 817988
-7 -11 26 704284
-24 21 -4 a0a0a0
16 15 17 925391
-21 12 -18 a0a0a0
7 -7 1 8065d8
-6 20 13 5d9ccc
1 7 20 747f68
-1 -4 38 a1daa8
-6 -7 20 4fddb6
-17 5 0 ff659a
21 4 7 742749
7 -3 -29 cc77cd
22 7 -18 d78a93
-22 -12 11 796a56
-35 -6 0 95768a
-15 -17 -1 5c8ea3
-17 -18 -20 a0a0a0
-20 24 14 747d63
-17 36 2 ce8daf
-15 10 0 a73cc0
-8 11 6 dc7484
3 -2 0 ff5079
2 -13 19 644f58
0 -10 -27 5b2e88
5 8 22 a34d59
-16 -18 -14 5f3a90
19 -16 -7 ffa65c
11 1 -22 738dff
-6 21 -1 afaedf
-38 -6 -26 ab97cc
-4 14 -12 97a1d6
2 -11 14 5b291c
6 9 13 e73b3e
-34 -8 10 c5ceff
3 22 4 a0a0a0
-31 10 -24 cfb5b5
-31 15 23 747d63
-2 16 39 ad697b
-8 -9 -24 495498
-12 -14 -7 5a6450
-13 10 25 ad697b
-43 7 -14 776a9b
-21 6 17 b469b0
-28 -13 -25 a0a0a0
-19 30 -17 daa794
-32 -12 -23 a0a0a0
13 4 -28 cc77cd
-29 17 5 83868d
2 -3 25 4f6170
13 -9 10 792978
-10 13 19 c48954
14 -6 -26 995645
-14 18 -12 d78a93
18 22 -26 e9867f
12 0 -30 9a3e65
-20 5 13 787e6b
-18 6 -33 645cff
8 6 -14 3658c0
-2 -24 6 704284
15 -21 -12 d78a93
-2 -30 3 8541a9
-1 11 -12 6942ab
-10 14 27 ad697b
-23 2 16 6cff8d
-30 10 30 8eddd2
-14 40 -16 52ff98
20 -16 3 734c7b
-4 -7 16 ae81b2
-23 22 6 b9e048
-38 15 -6 cdd3d5
20 -29 -6 6b2274
5 7 9 8e9237
-33 -4 15 8d629e
-4 13 21 ea6f9f
-15 13 -27 8173ad
-22 7 2 4c994e
-33 35 -1 5587b1
-16 10 -12 ce8daf
10 -12 1 6f4c61
-3 -5 -8 7934be
-11 12 9 ad697b
-28 17 -26 a45fca
-23 -14 -29 ce7084
-19 33 -14 c1bec0
0 10 -14 59526c
-8 11 25 ad697b
-1 8 25 ad697b
-14 -17 -3 a267c3
-42 12 -13 7799c7
-39 21 4 53397a
-14 -2 3 7f618a
-7 9 0 a29eff
20 -14 11 a267c3
-13 26 9 69ddb2
-21 6 9 ad697b
-22 -14 -3 6b7365
-13 -31 5 3d4d6f
-22 -6 17 ad697b
3 4 -17 be6ac4
-37 22 9 53397a
-20 7 -28 bf75a8
-34 21 -12 a0a0a0
20 0 8 694fb5
21 4 -4 df9b68
9 -6 -20 ffc092
-9 -3 -22 ffffbd
3 -17 -2 893095
-34 -10 -17 ffb884
4 24 18 925391
-32 -11 -16 ff5686
-16 43 -2 ce8daf
12 3 -7 ccd593
-30 22 -22 cc71b9
-1 14 -10 9d5b64
-20 11 -22 a0a0a0
1 -13 -7 f6ac49
5 18 1 bd6e9e
11 -4 -36 7d47b3
9 34 -3 ae67df
8 -10 25 744b7c
-14 -2 16 f16a62
-14 -24 0 687862
12 -24 1 734c7b
2 -8 -2 91999c
3 -14 -30 9ab1dd
-2 -2 -41 a0a0a0
-31 6 -14 dcb5a6
3 -14 19 4f586b
3 26 -21 c77854
-30 4 9 8e7a57
2 12 12 6162a2
-16 26 8 69ddb2
-31 39 -12 a0a0a0
29 16 -34 e9867f
-1 29 0 b7d3c4
15 -9 -7 865698
-14 21 24 ad697b
0 -6 -12 70b2ba
-18 19 -18 cd9c9c
-20 27 -10 748d7f
-22 -17 -1 6162a2
-5 -13 -36 4d3d6c
-18 -5 0 898e83
-42 5 13 9e8c55
-18 -16 0 4e20c1
-51 35 3 7e9d60
-41 6 -7 cb8fc1
12 5 -29 cc77cd
-44 15 7 a0a0a0
8 6 10 6b2d4d
-37 20 -18 ad7a8b
-16 15 25 69ddb2
-12 6 -8 8d4ba4
-14 11 -7 a29986
-8 12 28 b8ceb4
4 -6 -27 52456a
-21 28 27 9ca9ab
-29 2 -35 a0a0a0
-4 1 29 ad697b
7 11 -14 60677e
21 12 12 ae566f
-47 4 -18 f3986b
6 -20 0 ff46af
21 -12 -6 ffa65c
-7 12 -20 6b499f
25 -12 2 4f325d
12 17 -15 413be9
0 13 -7 a81b3c
-4 28 -17 cd9c9c
-37 20 6 b3a4d3
-41 8 16 9e8c55
2 -14 1 cc7549
-21 4 17 da7073
-26 12 7 b2bad7
9 -19 10 b73f53
5 -10 12 ce8daf
2 15 20 ad697b
-37 -3 -20 cd76dc
-7 -27 10 8541a9
-10 8 -23 8f805f
6 0 7 c38274
