# .PCD v.7 - Point Cloud Data file format
VERSION .7
FIELDS x y z rgb
SIZE 4 4 4 4
TYPE I I I U
COUNT 1 1 1 1
WIDTH 2901
HEIGHT 1
VIEWPOINT 0 0 0 1 0 0 0
POINTS 2901
DATA ascii
7 35 5 6abdcd
-19 -16 -15 6f576e
-23 8 -9 b2ca88
-20 11 -9 b2ca88
29 18 -11 ef54f2
1 13 -11 706ece
-22 30 4 acc3e1
-5 3 16 b85295
2 -18 -12 698760
24 -18 5 563548
-36 -11 9 443e7a
-10 -20 -1 823da2
-25 23 9 7875e9
18 11 -29 ebb47b
-18 12 -27 a0a0a0
23 -36 -7 d78a93
19 0 12 303b54
-34 4 -25 b2ca88
15 -18 -25 b58f97
-7 -4 23 52544d
-2 17 19 d096ba
-15 15 -3 ce8daf
-5 40 -6 87ffb9
-4 30 -12 bed5c7
-6 22 -21 4c79f2
-29 -20 9 744e50
-37 24 16 747d63
-11 9 21 b85295
-25 13 21 6b2547
-7 24 14 863d62
-11 -1 -10 7f6e7a
-1 0 1 74318a
-28 2 18 463d86
-40 29 15 697cd6
-23 26 -7 908cbf
-13 23 -20 9a82db
-29 9 -24 b984ff
-9 21 -8 ce8daf
23 13 -8 8bed9c
-4 -6 5 555170
-33 -12 -8 cd76dc
-8 35 3 ce8daf
20 9 -13 ff726a
26 8 -5 d1ffd8
-24 -19 -21 6f576e
15 19 -9 db4fa1
10 11 -7 ff9ba0
17 -3 -23 94a4d4
28 -24 -5 5b227c
-1 1 -11 c7bac3
-9 19 -29 6162a2
16 -11 -16 47b4d4
-44 -3 22 b469b0
-10 -16 -8 37b76b
-14 3 38 7a378a
-7 38 19 e183cc
-4 -3 -18 7642b1
-6 0 -12 e8d063
-12 -12 0 744e50
-44 20 -11 a0a0a0
21 5 -16 9bb265
-44 4 21 4c94ce
-43 19 12 747d63
-11 21 19 71856a
-1 17 -28 fe6062
-24 -8 -15 73634f
0 5 32 82a5b0
-18 10 -4 8c8d88
14 0 -19 a0a0a0
-7 12 10 c3776b
-10 23 31 ef4174
-19 -9 18 ec849c
10 3 14 4f325d
-27 -4 -7 e979ad
1 3 20 834b7c
5 20 -8 6998ff
-37 8 -1 af459a
-11 37 -24 81849a
4 27 -30 6162a2
-7 22 -8 ce8daf
-16 11 10 91b764
-19 -19 -34 526a58
-1 19 -5 dc7484
-26 26 -15 c156a0
-4 19 -6 ff72ff
3 -14 11 663b9d
12 22 -2 ff778f
18 -1 -31 d39286
8 22 -5 89a5ff
2 -22 -17 953771
19 23 -15 ff6f88
-3 -19 -14 a0a0a0
-36 -22 4 686358
-2 12 34 925391
1 -17 -5 d9916f
24 -19 0 d78a93
8 -7 -25 556031
-2 6 -34 cc77cd
-11 34 -24 81849a
-13 10 -23 5b53d5
-1 23 -12 5c93ff
31 26 3 d78a93
4 14 4 b7ac6b
9 -4 4 652a5a
-14 -13 -23 6f576e
19 16 -6 ff6f88
8 9 25 48639a
0 -2 -16 346242
-25 14 -5 9affa9
-13 10 -14 9ac46e
-21 -13 17 ad697b
38 -1 13 4f325d
16 -16 12 7a99a4
37 -27 4 ffb2ac
18 6 7 ce8daf
17 -22 7 ffed3d
-2 -11 3 3b59f4
6 -4 -16 943791
-36 6 13 b0545e
-28 -16 8 6f576e
-2 1 -20 cd9d70
-43 5 -15 895999
14 4 -35 ebb47b
-16 22 -12 d09ed3
0 -17 -34 40b33d
-4 15 -32 6162a2
-5 -19 -27 a0a0a0
16 -16 8 50694e
-10 1 -44 94a7a2
30 -7 21 734c7b
10 35 5 6b2d4d
6 -21 -5 50495f
-28 -2 0 6f576e
27 12 -6 d78a93
-23 10 -30 b39398
-26 17 24 70da94
-28 0 6 969bee
-14 -12 14 ad697b
-17 11 20 8f8fff
-30 0 -20 b0ec7a
-40 15 21 a39787
11 -11 15 734c7b
9 9 -6 86344e
2 -6 -25 4270d7
-3 -32 -22 a0a0a0
-15 30 -24 9dcbc0
-11 0 1 61a96e
-10 6 -31 9c746a
0 14 -13 5f7656
3 -18 -1 734c7b
-18 2 12 85413b
-36 6 -28 6877b6
13 -6 -24 a8826f
2 12 3 24294d
-19 14 2 5592ff
6 -12 -19 5cb1ea
8 -17 1 50495f
4 44 -29 7cc046
1 -18 -9 4e6d54
-8 -28 10 895d51
-4 8 1 ad697b
21 -29 9 983ba7
-35 -1 0 fff1ff
-13 -6 12 64399f
32 10 -6 d1ffd8
-28 14 -8 4d60c0
7 0 -3 423b87
-6 -10 9 9e79a3
-27 2 0 743fa7
-19 -11 -17 ea868a
-6 3 22 b8ceb4
43 6 -12 4f325d
20 -8 30 734c7b
19 15 -33 7863ce
-2 -5 -6 9e79a3
-29 -6 8 ca8e7e
-33 10 -22 cc7eba
15 25 -9 89a5ff
8 -3 11 71acb7
23 8 -6 3e46ff
-39 21 6 747d63
34 31 -2 e2a29e
-5 30 2 afaedf
-43 5 -3 80724c
-36 -25 10 686358
-11 10 15 7e889f
27 -30 -19 984de8
-10 10 -16 6d68b0
-7 8 27 6f4068
9 1 3 b8176c
35 3 2 48323b
-21 10 29 f1664f
-12 7 26 695651
-11 -13 -10 37b76b
-16 -17 -9 493944
1 -1 -1 74318a
8 -23 9 ab516d
21 2 -9 a3ffff
-18 -14 -24 b17381
-44 36 2 747d63
25 -10 23 734c7b
-4 -1 -4 a57f89
10 -25 7 e88b80
-9 -1 -37 a0a0a0
-11 26 13 ce8daf
-35 2 14 8a85b5
-34 2 11 a0a0a0
29 -9 -15 ff8bd4
19 0 22 6fb2bf
-20 34 -5 a7a9ff
-45 11 -12 789d67
-40 -7 -5 e0a9ac
-4 27 -12 5c93ff
-24 8 3 d65169
-12 23 26 ef4174
-7 42 -5 87ffb9
-11 43 -11 8a99ce
-13 -11 21 705897
15 17 -10 ff9a95
18 -13 2 8761d2
19 -12 -21 d78a93
-34 5 -15 b38dbf
2 -5 -13 6f576e
-6 -16 -6 6f576e
14 -4 22 af3b74
25 -14 18 5820cf
-8 -1 17 e7827a
-23 2 -10 448dcf
14 10 -12 a4719e
13 27 -12 a0fff1
12 5 0 7599ff
14 -15 13 734c7b
8 -6 -14 2e504a
6 -15 -4 4c5757
-41 22 13 5f6a5a
-12 14 -26 955694
-2 3 20 98478d
-43 9 -20 6a9859
-11 -24 21 4d3adf
26 -21 15 734c7b
-29 43 -12 c957ff
10 -18 -20 d78a93
17 -12 -8 734c7b
-11 28 18 82c19e
-13 15 -19 bdffb3
27 1 -23 d78a93
13 16 -22 5777d9
3 -13 -16 794ebb
0 -13 3 386eec
12 -13 -31 ffc092
-31 11 -12 d6a3d2
-12 7 -2 ad697b
18 -3 28 6fb2bf
31 1 -17 ee8180
-28 6 -6 8f8ced
-7 -20 -13 f3a37c
-41 -7 -1 b4d7dd
24 17 2 b83562
-2 10 -8 706ece
9 13 21 6ccd97
24 -17 1 734c7b
-22 -6 35 97a3a8
-26 -3 -12 4e5170
-21 -18 4 4c6a7a
-19 -18 -5 de4687
-12 -9 -10 b2626c
-7 -21 20 6a2482
15 -28 1 734c7b
-5 30 4 a67f7b
-33 11 22 bac092
-47 40 -4 747d63
-25 25 -16 9ca9ab
-17 2 6 ad697b
-4 13 -16 71acb7
9 -3 -9 423b87
2 8 -26 6162a2
1 45 15 ff4bc6
15 -13 22 565a87
-2 -9 -22 778594
-13 -1 21 ad697b
-12 9 30 ad697b
-25 20 3 ff77ff
-34 29 -38 6ea1da
-20 31 -24 5bbf4b
23 38 7 ff94c7
-22 12 -17 ffa594
-1 8 29 ad697b
-43 12 -10 b759b2
12 -21 14 5d2f99
23 -4 7 a2142e
-39 9 3 a48b7f
21 3 -4 8e1c62
-2 4 27 734e54
-14 -5 -6 a0a0a0
43 -20 -5 ee8180
-22 -15 -5 a0a0a0
-32 13 -4 7e60c5
4 14 -1 afbaa7
23 1 7 6b2d4d
-26 20 -7 ff6cff
-6 10 -5 29829c
45 -10 -18 c1ba53
-26 -7 -8 ad697b
-55 28 3 566164
11 18 10 6bb6dc
-26 1 31 d98978
-16 40 -14 ae7182
1 10 5 b5ffff
-37 -4 -1 b8c075
-11 -6 -4 6f576e
-21 -21 7 a0a0a0
46 -12 -6 d05d57
2 -3 -9 446c98
-28 3 7 a97d9e
-3 -4 -12 5935ab
-30 -10 18 ad697b
-28 -12 17 ad697b
-2 -5 -4 9e79a3
22 -9 23 734c7b
15 12 7 925391
3 -2 -21 4f27b9
34 -2 -2 4f325d
8 15 16 68a2de
-11 27 -13 a0a0a0
14 2 -41 a8826f
-32 0 0 ad697b
-4 8 25 a3ab7f
-5 -11 19 646d88
-21 -14 -32 a0a0a0
-18 -15 -9 73634f
-27 2 -26 836167
-5 -8 -29 6f416e
-33 -2 -7 60617b
-29 -10 -1 7d4b62
-7 25 2 3f7b91
31 -2 11 432e4b
30 5 12 4f325d
3 7 26 7769a2
-10 43 -5 85a3d5
-31 7 3 95525c
-20 -10 -24 a0a0a0
0 -3 -31 6a789c
16 14 -25 fe629c
18 20 5 523367
12 -8 -4 5988e6
-14 1 1 98ff88
19 5 -6 4f55a3
-12 16 -3 5e50a1
-25 -10 -39 a0a0a0
-39 23 4 c156a0
-7 1 -32 ffb79f
-2 15 -5 959edf
23 24 -3 ce8daf
-14 -6 24 ffce9d
-24 -26 7 a0a0a0
-39 -20 -1 95a364
-20 -8 -37 d78a93
-46 18 8 c156a0
32 4 1 786e5a
-26 -5 22 6f917d
-12 -18 17 646d88
-42 6 13 c340e5
9 -10 -1 5a304e
23 -20 14 4e40c1
13 0 17 411f67
8 -4 -13 6e45c8
7 7 13 77c7e1
-54 25 11 727c5a
-22 -15 27 ad697b
-11 21 -40 6f5fc6
-28 2 -18 ea868a
-27 8 -7 b2ca88
-4 -15 0 4a7957
10 -17 9 ffa899
-13 4 28 91567b
-12 1 24 ad697b
13 22 19 8e1c62
-29 20 16 747d63
33 -20 -23 ee8180
-15 24 -9 4e87aa
-13 5 26 ad697b
-9 -9 15 866060
-5 13 1 ac5770
-24 -12 5 644d4b
-21 -15 -1 abc8c0
1 -7 11 704284
-10 11 -25 ff8864
-30 -6 16 ad697b
22 -14 7 fc7cae
-31 -19 0 b7a2ff
-37 16 -12 a8a05e
-9 -23 -5 3f7bb6
-21 4 8 aa57c1
-12 33 -7 85ffe1
-13 -9 -11 882834
-5 4 -34 6d334f
-39 0 16 ff7c75
-50 32 2 94645c
-22 16 4 82ec82
-22 -28 11 7d4989
-6 -10 6 6162a2
37 -26 -7 ff6aa3
-44 3 1 9ca9ab
-10 -28 11 96666f
-27 19 38 8aae89
22 -29 -13 45239d
32 -2 -19 bda8b3
-10 4 -12 ec6e62
6 3 -9 d685a2
-22 18 9 8f81b8
-32 4 16 8b4ea0
-17 42 -1 ce8daf
1 3 30 82a5b0
-39 16 -15 95768a
13 5 13 581f47
0 9 8 ad697b
-52 3 11 d4dd82
-32 4 26 ad697b
-16 -9 -8 c6c7d8
26 6 10 4f325d
9 -7 13 72b6a6
-27 -13 -7 90b2c7
40 22 -13 ff7894
-5 11 18 a14d77
-14 -22 6 8e48aa
-3 17 24 7c7288
-17 -10 -3 37b76b
15 0 -20 a0a0a0
-5 3 -8 6678f9
-4 6 -6 cb90be
-7 -12 -10 679b8a
-9 -19 25 923081
-33 20 -6 a2dd5a
-34 27 22 747d63
-39 -1 4 baf7ef
-29 32 11 a0a0a0
-40 15 7 5f6a5a
-10 -2 -29 836971
33 -21 -23 bda8b3
20 -5 -3 a28473
-32 22 -12 7f82f4
11 -5 -34 e6b460
-31 26 -22 6b7383
-32 17 -24 797ac3
0 -22 -13 d78a93
-22 22 -7 a0a0a0
5 21 12 6bb6dc
8 -12 -3 a33973
0 12 10 733c41
9 -47 16 ff3793
-12 20 4 94777d
-3 7 -18 a1a1b7
-37 25 15 625d47
-11 22 21 ad804a
-25 0 -29 ea868a
25 -23 -8 734c7b
-32 14 -7 7e60c5
11 -9 -14 47b4d4
8 18 -10 d0d7b8
-22 -6 9 6f8859
-4 -25 -6 4c6a7a
-6 -21 20 80348f
-4 -13 4 6f576e
-47 16 10 747d63
2 -12 -14 539340
-22 8 -30 b382a7
4 -26 5 4d4e8f
16 -10 -5 1b6a5f
-8 6 -12 6678f9
44 -18 8 8f5c98
-6 37 -3 85a3d5
21 -15 14 504d46
-4 -22 -15 92697b
5 7 -15 a0a0a0
-8 -21 -15 4d9dc5
-9 31 4 58e2ff
-7 -8 -23 a0a0a0
-15 12 -2 71acb7
-14 23 -21 62afcb
22 -31 -18 916792
-16 -19 11 7d4989
-10 0 10 be58a1
7 -24 -21 a0a0a0
27 3 -14 a585a0
-13 8 -10 74318a
-34 -6 -18 b2ca88
-21 30 -17 9ca9ab
-31 41 -12 957776
-27 23 1 519760
-31 16 11 a67dd0
15 1 9 6d5763
-20 26 10 7a7bcb
-9 -1 -6 446c98
-12 10 33 943ca3
10 24 -13 5660c0
18 -19 -24 b8292f
-28 10 -2 9983b8
-27 0 26 ad697b
-25 -7 34 97a3a8
12 18 19 65b1ff
18 -3 -7 a4719e
-10 -26 -22 a0a0a0
23 3 -4 ffb155
-33 22 -15 7f82f4
17 11 -33 ebb47b
-20 -16 -10 626e54
-3 14 2 627294
5 -29 10 70489c
12 -8 2 5222c1
12 -18 -24 d78a93
-11 24 17 697cd6
46 -14 -25 ee8180
-28 14 -27 a0a0a0
30 -23 -2 734c7b
32 -9 3 a2142e
-17 24 2 7a7180
-21 3 2 ffc1a9
4 22 16 5987c7
-5 30 -7 93c6a0
7 22 8 925391
-5 2 25 ad728a
34 -25 0 ee8180
-17 -3 16 462c61
28 2 -1 ffb155
-37 7 13 895ecb
-34 -1 -8 a0a0a0
-20 8 7 a0a0a0
22 7 16 925391
29 -3 8 4f325d
13 19 -12 1f3627
-19 29 21 a97d9e
1 -15 24 696eb9
-19 8 -26 ab91ab
10 29 4 713557
-48 6 2 b2ca88
-43 5 -21 b38dbf
-10 -14 -3 b87961
-20 9 -29 898fd1
-25 -8 -29 4ac57b
5 -20 22 6930b6
-32 -6 19 b469b0
-4 -23 -33 9734c7
18 -13 -17 d78a93
-10 -12 5 7a4864
-1 -20 -8 6d477c
35 7 3 433a4e
-10 -26 3 43799f
-25 4 3 ec8a79
7 3 18 97ffcf
31 -12 -1 bc63ba
33 6 -23 d39286
-23 -20 -1 644d4b
-45 6 -8 cd8e87
3 10 -20 918e6c
2 -20 -22 803090
-11 -13 -28 dc9fd1
-12 16 -5 bd83bf
-2 -14 -25 40b33d
19 0 -35 8d7da5
-14 -5 10 ff6d9b
-2 3 -3 3f6674
-12 33 -8 b975ef
-26 5 -15 e9a024
19 12 2 925391
-13 21 -2 8a99ce
-22 19 -28 d9de82
4 -3 9 4f325d
-23 17 11 aa3492
17 -2 -12 68517a
-10 14 8 dda384
-3 7 -9 d98aff
-20 -13 20 ad697b
40 -1 1 af525c
-31 29 -17 9ca9ab
31 4 24 6b2d4d
-4 -11 -8 792986
20 -5 -17 706ece
6 22 1 97216b
-11 -17 -28 526a58
4 5 -8 6268e6
0 -14 -2 3f4270
-36 1 16 c340e5
-32 11 26 9b6eab
17 2 -8 68517a
-2 16 -28 6162a2
-1 -12 -8 ffe16a
-26 -3 5 b8509e
42 -5 -1 6b2482
-10 33 -27 a68f82
4 -25 8 80348f
-36 26 29 747d63
11 -5 22 665650
-29 1 -31 968575
6 -9 -14 504569
28 1 -12 ff8bc9
19 20 -16 d0d7b8
-8 17 -3 6bcd67
18 -10 -11 c2b4c9
-27 -7 -34 a0a0a0
-16 1 17 589951
-8 18 -15 d3a358
2 14 4 97216b
12 0 -26 4c7e7a
-2 19 6 69ddf1
-15 28 -32 81849a
-9 -21 2 d5255d
12 -23 3 675554
-2 -15 18 763771
4 21 12 b19ed2
-20 32 -34 81849a
-43 12 -7 cd8e87
-35 8 12 7c9f9f
16 -10 -15 716574
-34 17 -18 b38dbf
-21 24 16 b0545e
40 -3 1 a45287
1 -5 -25 8089d5
-12 14 -7 772487
18 4 -16 c3c3ff
-21 22 -33 81849a
-43 6 5 70badb
13 32 -8 b5d778
-26 -5 -16 98a670
-34 28 -15 957776
25 -3 0 ff94b1
-44 15 -21 a7ff4c
2 12 -19 edb763
24 -1 0 ee8180
-9 -2 18 ad697b
-14 -7 35 d98978
-29 7 -16 56a77c
13 25 -2 ff4ca2
-39 12 1 a0a0a0
-10 1 13 b85295
-8 -35 -3 895d51
-5 -13 17 a0a0a0
18 -19 2 734c7b
-7 -21 10 6a8ec6
-4 -2 -26 9eb79a
17 -5 -3 4f325d
-19 -6 -17 6f576e
18 7 2 7599ff
2 7 -32 a0a0a0
4 13 27 bb53b8
-19 28 -15 5996aa
3 -23 17 714e85
26 0 -14 ffa26d
-8 20 -19 647ccc
14 7 -24 d78a93
-19 -8 4 615c69
12 3 0 483d82
-21 17 9 c3946f
12 0 6 525bab
-12 -7 -8 6f3a52
-1 24 -7 be918e
-43 4 -5 a48b7f
18 -3 -29 985cac
4 -18 30 51433c
-31 -7 5 b7a2ff
-30 -4 -3 7d4b62
11 12 2 494e52
-2 -10 29 b8ceb4
-31 -5 2 62ff93
-17 17 8 66ab74
12 -28 -15 8a4b7e
-37 13 12 8b4ea0
-34 -6 -22 b26b96
-5 25 -16 a0a0a0
-13 -4 -34 6d334f
28 12 6 ce8daf
-14 33 -38 75d74a
-18 20 16 ad804a
-21 20 10 a97d9e
-6 -14 23 b8ceb4
-28 -6 7 b0467f
0 24 -9 bd5e47
31 -22 -6 734c7b
11 -13 -9 9da0c2
-14 -20 -6 d9916f
2 15 8 4e7092
-12 -16 16 5e2b42
-11 2 13 ad697b
-28 1 16 b469b0
-4 -13 -8 635289
27 -18 2 d78a93
32 17 -3 d1ffd8
-26 25 -6 568c88
1 -29 -3 6f576e
9 -24 -19 803090
0 14 30 7c7288
39 12 -23 ee8180
18 1 -25 94a4d4
8 -31 -9 7b9793
-10 -15 17 80348f
-18 -3 21 ad697b
17 -16 -25 ffadb4
-36 35 3 747d63
-34 41 5 747d63
-36 11 2 a3bbbd
-37 23 -17 9ca9ab
-15 -2 -1 908b6f
3 26 -10 89a5ff
0 -22 0 6f576e
25 13 -9 9389f3
-4 15 5 dcd7c4
-22 -5 -14 ca60ff
-3 5 0 ad9673
34 -19 23 566854
-13 1 -15 4028a4
10 9 -35 47b4d4
2 12 7 ad697b
-26 -9 18 ad697b
-11 12 2 ac5770
-12 -5 19 ad697b
2 -8 -12 539340
4 0 21 6e4c6f
-11 -19 17 8f219f
24 -3 14 662459
17 -3 -13 cc76a8
3 8 -5 324965
-51 19 -7 a2a67c
3 19 17 7c7e51
-18 -15 17 744e50
30 -4 1 4f325d
36 -27 16 5f46b7
-17 -12 12 4b9d80
1 0 10 494e52
20 -21 -3 9b2e53
0 7 -11 9c90e6
-6 4 -10 9781e5
-36 -30 14 8a4777
-6 26 -23 7b92a4
-3 9 -19 ff9ba0
-17 3 -21 c0ae7c
28 -7 15 64303b
27 16 -8 4f325d
-19 12 -4 a0a0a0
-29 27 14 a0975f
21 13 -22 ff7894
1 -6 -5 9e79a3
8 -7 14 4490ff
-4 -1 -10 5a5f72
20 -8 12 554d7d
3 9 -27 a0a0a0
7 -20 12 91673e
-2 -7 -4 6ad15e
29 -41 -5 8a4b7e
5 -26 18 565a87
25 14 15 623a5f
-16 11 -9 ce8daf
-12 19 -21 78cb64
-3 -14 -33 4dff50
-18 9 -15 77ffcd
-16 13 -6 9ca9ab
-33 16 -6 747d63
-29 7 -30 6c83fe
-11 6 12 72a077
42 -2 -2 ffada8
-14 10 7 697cd6
-7 19 -18 a0a0a0
-23 1 -24 a0a0a0
25 10 3 8e1c62
3 12 13 9cb071
-30 -10 24 ad697b
-14 26 16 49a5d1
5 30 -1 85a3d5
0 -13 12 734c7b
-31 -12 22 7d6879
7 16 -30 ffc9b9
-9 12 -39 c75849
14 16 -17 91dbf2
-11 8 -10 aaaa9c
-38 -4 -10 5c63b7
-4 -18 2 701c89
8 -18 -19 9da0c2
-32 37 -4 ffb882
8 -14 -11 5e6fc8
-7 -5 -6 9edf48
-5 -9 -1 917a74
-14 12 27 9ca9ab
34 -1 -13 ee8180
23 1 -14 c09b90
-28 -6 18 b8ceb4
19 -11 1 6c267d
-14 -27 12 7d4989
-17 24 -14 a0a0a0
-33 -6 17 ddcdc5
24 -19 -11 45239d
7 -5 -20 a4719e
1 -6 -9 484fd4
19 2 -13 6c6e89
-21 17 -8 ffc1b3
-10 10 22 7e889f
9 -6 -22 d78a93
-23 20 17 b0545e
-14 -18 -1 a0a0a0
6 14 17 6fb2bf
-16 -4 16 757361
-17 29 -6 8a99ce
-12 -15 17 564176
-10 0 16 ff2c5e
-41 1 0 9f5377
-16 -4 -11 6f3a52
-27 5 -23 cc7eba
-20 -14 -4 86a5ff
18 24 -21 d0d7b8
3 -12 -30 ffc092
-4 6 26 734e54
22 10 7 4f325d
-22 6 17 662938
-22 24 -32 c351af
13 12 1 57205a
13 -17 17 9d2f8f
17 -7 10 92cbb5
-35 16 -12 b7be50
12 5 -27 c2a96b
-26 16 6 a0a0a0
-4 36 9 d869be
-16 11 3 438c8a
24 -5 3 4f325d
1 -7 -26 a36866
-39 -19 3 deedee
11 -3 -27 cf5b84
-10 -8 -11 b2626c
7 -4 23 504d46
-4 -25 2 6162a2
24 0 11 3f344d
13 -17 -5 a33973
-1 7 -4 9ca9ab
26 6 23 6b2d4d
32 -30 9 a33973
-13 6 -22 cd9d70
-9 21 -28 5873ad
-16 16 10 ffffff
-26 -3 -1 da555b
-2 -3 8 493fa4
-18 -17 8 895d51
-28 15 -6 bbe472
-27 6 -26 bd7adb
-12 -9 30 d4d2a6
1 22 -3 93c6a0
-10 1 11 814dbf
17 -7 -12 a4719e
-2 39 -9 b7d3c4
14 10 -7 8e63bf
3 6 -11 a73c63
-23 33 6 ff6cff
14 -24 -26 2dff8d
22 -16 -22 916792
1 -1 -22 75af59
-13 9 9 cd597b
-32 8 27 ad697b
34 -1 -10 ee8180
30 -2 0 4f325d
-25 12 21 6a554f
2 18 -23 5777d9
-17 22 9 39b396
19 -9 4 ac7b9c
3 19 -17 93626b
-1 -17 -5 d9916f
-15 17 9 438c8a
6 -4 14 ba4172
-10 1 -21 875a30
8 -5 -2 5b227c
-31 22 -7 99ca71
12 -15 -30 ff90c9
-14 1 -34 a0a0a0
-34 25 2 a29986
-45 13 -33 c2798a
-17 -20 -16 a79f92
-6 -11 -24 5a5f72
20 8 -16 9bb265
6 26 -13 ab91ea
23 7 4 4f325d
12 -10 -34 d13f57
-40 3 7 80724c
18 11 -18 bfaeff
-45 21 -7 cce6bc
24 -3 6 e28dab
-10 28 -10 7f7392
-20 16 9 dcd7c4
-36 22 35 747d63
31 -19 -26 ee8180
12 -2 10 493fa4
16 -5 0 b92c4b
-17 9 13 7ba57e
17 -17 -6 645e60
-37 -10 1 b7a2ff
19 6 -6 bf1456
10 -8 -17 84477f
-26 11 27 4d3651
-19 6 -14 ea868a
6 9 1 55797d
9 -11 14 a43089
-18 24 -1 7b8ac2
10 5 26 d2946b
20 -17 4 734c7b
-9 -10 26 d98978
-20 -18 24 9a3732
3 -34 5 70489c
-6 2 -3 c34468
-12 20 20 7de6ad
-8 -12 9 ad697b
-24 -7 -20 ea868a
-7 -3 -15 84386e
11 -13 -22 d39286
21 -4 -14 a28477
-12 2 9 ad697b
-14 -6 8 b3a3a2
-36 37 -10 c957ff
8 27 -5 332526
-25 2 16 662938
-23 10 0 ffc1b3
-34 15 -1 97dc6f
-5 37 2 ce8daf
-11 -2 15 dc47a4
-15 9 -27 544856
-16 -4 -24 622c99
-44 -11 19 b469b0
-8 2 -16 b08064
23 -2 16 6fb7e7
-31 -1 -36 9b9e67
-25 26 14 a97d9e
23 -15 -10 5b227c
-34 19 -29 c4d26e
-12 26 0 aa7bff
7 -7 7 80348f
-35 -1 -9 a48b7f
-4 26 14 ef4174
-53 41 7 747d63
47 -15 -7 ee8180
-34 2 17 8a85b5
-6 20 7 dda384
-14 -3 -9 7f6e7a
9 -13 -11 47b4d4
-4 -11 -4 4c5757
11 -16 -11 d78a93
-19 18 -10 785d7b
-44 -4 -9 a2c1c7
-27 3 15 6a554f
13 7 -22 a0a0a0
-20 -8 21 ad697b
-13 -9 18 744e50
-23 8 1 ad697b
-8 11 10 9e79a3
16 -9 7 652a5a
30 -12 -14 9da0c2
8 4 -26 5660c0
-33 -11 -10 cd76dc
-12 3 -13 be6ac4
-8 2 -33 6a789c
-44 24 7 a84889
21 -12 -13 50495f
-24 9 -23 ab91ab
-14 21 -29 d87799
13 8 12 7d3e6d
0 -1 14 6b4256
-46 -7 4 80724c
-48 21 3 ff4c7d
-6 -11 5 9e79a3
-3 -20 18 6a2482
-22 15 -9 9ca9ab
14 10 7 672266
-13 6 19 438c8a
3 -7 -3 69504b
-8 32 16 e183cc
-16 -17 -3 d6be8e
17 25 -15 d0d7b8
1 -17 7 734c7b
15 -28 -14 916792
14 -2 -24 9b4c65
-8 -16 -31 4d9576
-14 12 -28 a0a0a0
-10 1 -19 955694
-28 19 -31 a0a0a0
-27 12 -28 6dacc6
-29 5 -1 ad697b
-16 2 17 ad697b
-19 18 -15 584580
-33 17 6 9e8c55
-25 6 14 ad697b
3 -15 10 734c7b
-17 -1 -26 a0a0a0
-21 24 -6 399bd9
13 -16 -30 dbb6c3
-31 38 -3 ffb882
-19 32 -3 7a7bcb
10 25 -22 fac260
-7 -14 -13 698ec7
-1 22 1 6162a2
-20 4 28 4c6ee7
-23 -8 13 ad697b
-8 8 2 d871df
30 -4 -4 bc63ba
-26 8 12 ab507a
-3 -26 8 43799f
-7 2 -5 6f576e
10 -7 6 433c64
26 4 -22 bb2f56
-9 1 39 b7fe7c
14 8 -10 696d92
26 -22 -6 8a4b7e
20 -2 0 aa2f71
-15 -17 4 386eec
-12 5 -25 69784c
9 -6 7 ff90c9
-33 -2 6 80724c
-41 3 -8 78d874
-38 6 -4 af459a
4 1 -20 e9c14a
16 -10 0 8a2844
-15 11 8 9e79a3
12 -15 18 94277b
-9 15 21 9cb071
-8 3 22 69ddb2
-16 -25 17 744e50
-8 -16 16 c8d6a2
-33 -12 17 ffc2ad
-20 -12 17 ad697b
5 13 4 65a2cc
17 9 -18 5a1a64
36 -17 2 b2419b
21 20 1 8bed9c
-36 15 -4 81f96f
18 -38 10 7c417a
-7 -11 10 ad697b
-2 21 12 a97d9e
-4 -20 -32 348e4a
7 11 -5 4467a6
-6 3 15 b45b56
-35 10 12 8b4ea0
-13 -5 14 865d30
-40 8 -10 75cc7e
5 30 -12 ab91ea
-33 31 -6 4fd122
-26 -5 19 80a3d7
-30 9 -17 bbe472
-15 -20 0 ad697b
9 0 36 734c7b
-13 -5 10 b3a3a2
26 -2 2 4f325d
8 -11 -36 49658b
29 15 -27 d78a93
4 7 -19 49658b
-6 -24 -9 4a5c98
-17 3 -12 cd9d70
-25 28 6 a97d9e
-20 1 11 804669
-11 -11 -30 69bf7c
-38 0 5 80724c
-10 -5 -5 9e79a3
-24 31 -9 876558
11 -20 -3 617362
16 14 -17 d78a93
-21 -16 19 ad697b
-2 4 6 b66a6a
-19 4 -32 6f576e
-18 1 -17 e9a024
2 22 -14 d9857a
-24 -21 13 a267c3
5 26 -6 769f91
-15 -19 0 86a5ff
-37 26 5 c156a0
39 9 -7 4f325d
9 19 17 8e1c62
15 -5 -1 3c62b9
-28 26 1 65d5c5
-23 2 22 ad697b
-8 -1 -14 9b9467
-9 13 25 a8a945
36 -8 -27 ee8180
-31 32 -12 747d63
-20 5 -20 b0ec7a
29 -11 24 5d3043
-8 -7 3 a6c18a
-46 -5 6 ddcdc5
-41 6 10 7c9f9f
23 2 -24 bda8b3
15 -15 13 74394c
-14 9 13 9e79a3
39 2 -5 706ece
-16 25 -6 aa7bff
-5 -9 -7 6f7084
-37 12 -21 bcd67c
-10 26 -28 ff7e8c
-3 11 -13 a1a1b7
-50 11 -3 b8fc54
11 -4 11 4a3e39
-31 28 -5 aa8aaa
12 12 -11 ff9ba0
9 -10 17 a1415f
-13 -1 1 ad697b
-8 -19 17 8e48aa
-6 10 0 979566
15 -7 -3 9e5e4d
7 -6 30 7e495e
20 -16 -10 d78a93
-33 1 -34 a0a0a0
10 -11 5 5d2f99
-2 14 -31 6162a2
-22 -3 -4 91c7a9
-23 -28 0 a0a0a0
-8 22 -15 77965d
-32 24 11 acc3e1
-5 -19 5 d78a93
-22 -19 26 649fa9
12 30 -12 d0d7b8
21 8 22 60b7d8
-7 26 -2 7b8ac2
12 -25 -26 2dff8d
-4 -16 19 80348f
-30 -12 -3 dbb3b0
17 13 17 8142ac
-34 -9 11 b0467f
-8 30 1 3f7b91
11 -21 17 714082
31 18 -11 706ece
-46 -24 17 686358
-10 -11 6 b57d56
-19 11 5 80724c
38 -20 6 8f5c98
-6 -8 -8 9e79a3
-20 7 -2 ad697b
-12 -9 -11 704f72
9 5 -5 cc2b4c
-44 -10 9 ddcdc5
9 -16 -19 ffadb4
-22 29 -4 7a7bcb
11 -14 -24 ff90c9
-1 6 -14 7473ff
-22 26 -41 ca96b9
-39 13 -6 789d67
-18 -14 -10 683b7c
34 -10 -23 ff89b3
16 17 20 925391
-15 25 7 ce8daf
-15 7 -7 daff70
23 23 3 aaa180
-12 -13 -29 808a8e
-5 -11 -22 9f309d
6 13 -2 485c8f
-35 34 5 849290
-16 -13 4 46406c
-37 8 -11 789d67
-39 -28 14 4a5a4d
-43 -8 -2 b2ca88
-6 2 -1 c34468
-3 31 -13 bed5c7
5 -17 -5 50495f
-26 13 2 8ca7d3
18 -9 13 6b4366
-18 -15 -11 8e48aa
17 -16 3 d78a93
5 10 -32 6162a2
14 -39 -8 454570
-43 13 -20 a0a0a0
25 -1 -11 dbff77
22 7 -21 688381
22 -13 -7 a28477
-6 -1 20 b8ceb4
-19 36 4 5b987d
-28 3 2 7b72be
-8 21 -11 cbc6f1
-32 25 33 747d63
4 14 -26 a0a0a0
-21 5 3 845e5a
12 23 28 e3429d
40 -6 21 4f325d
8 -7 4 5d2f99
28 -19 11 d78a93
25 -9 -3 ee8180
29 8 -8 d78a93
5 -18 -20 a0a0a0
-21 0 -12 b2ca88
45 -16 1 ee8180
-39 -3 1 b3aded
-6 -28 9 a55549
-2 22 20 b8aad7
5 -6 -14 539340
27 -18 -6 ee8180
20 -16 -26 916792
4 -16 -2 471b6d
-9 5 26 6f4068
-13 -3 17 ad697b
8 22 14 6b2d4d
-24 -7 13 ad697b
-19 14 10 7c7682
-28 23 17 6a554f
-6 -10 -12 4e6d54
-13 5 19 438c8a
20 -26 -3 5b227c
-8 -8 -28 8dad81
-22 -15 24 744e50
14 -24 8 734c7b
5 9 12 ce8daf
1 -26 5 6d5867
8 11 16 6fb2bf
-4 -28 -2 6162a2
-25 -10 -12 60617b
-13 -3 -4 a0a0a0
-20 14 -1 772487
-14 28 -21 85a3d5
41 -21 -14 ee8180
-15 -9 -8 a0a0a0
-7 -2 -15 81d9c4
-48 39 -8 747d63
-32 26 12 ff6cff
-32 -10 -6 87adbd
-7 7 19 4ba3ce
0 -6 -37 444380
8 16 -1 6b2d4d
-21 3 32 d98978
14 21 -25 c24978
-14 16 24 9f4e65
-39 23 -11 a0a0a0
-24 37 -8 9ec262
5 30 4 6abdcd
12 -6 16 a1415f
-16 13 20 cd3769
17 -14 -17 916792
-23 4 30 71805a
-19 25 17 f2dbca
-37 13 37 6c6265
2 -10 15 af2a7c
24 3 10 4f325d
-5 24 16 438c8a
-22 -18 -18 6f576e
-29 13 0 bc72bd
-22 26 -37 7193ab
30 -28 -6 c78076
-3 -20 0 823da2
10 -22 2 50495f
-30 -8 -19 a0a0a0
-5 -10 -4 917a74
2 16 27 8570ba
-15 24 -31 5171ca
-45 1 4 5c828b
7 -9 26 704284
-12 19 -12 cfa8bd
26 -26 -7 8a4b7e
20 -18 -22 82716d
-10 8 -18 a0a0a0
-32 1 22 b98bd4
-17 17 5 dcd7c4
-4 -15 21 703ac0
42 12 -1 f1b081
2 5 -26 6fdca2
10 19 -39 73c697
-17 11 19 a97d9e
10 -20 -6 916365
16 -8 4 7a2852
-4 -13 11 826661
27 12 13 925391
37 -11 14 734c7b
14 -2 12 504d46
-15 18 14 6a554f
41 -5 17 334d51
-19 9 26 7d3e6d
3 -28 -2 734c7b
-3 10 -1 88595f
-27 25 16 5cac4e
-28 -10 18 ad697b
34 8 2 433a4e
8 5 7 ce8daf
18 16 -25 fe629c
23 -36 -4 c425a4
-11 -4 -10 e8d063
-16 42 -7 c691d0
-1 13 10 447cdc
6 20 15 5987c7
-2 13 18 733c41
-14 12 3 7ccbf0
-34 20 -31 c4d26e
1 -8 15 af2a7c
-36 23 -16 c156a0
-41 24 -16 9ca9ab
-46 36 19 896548
14 -2 1 5b227c
-6 12 -12 be6ac4
1 -23 -20 40b33d
-29 38 -24 be74aa
19 -13 -18 d78a93
42 -11 -2 ee8180
-2 17 -21 bed5c7
-16 -13 15 6162a2
-8 1 24 a32477
10 -6 14 ec58ea
12 3 25 ba4172
-11 41 13 e183cc
14 -18 -10 9f7891
-32 -7 26 ad697b
14 -22 20 836299
8 -12 -18 df83ef
-18 -6 9 9f5a4d
-9 3 0 b5ffff
8 -1 -14 2e504a
16 -4 -15 684bc4
6 5 -2 a57f89
2 -1 24 805680
-31 3 18 828390
39 6 -8 ff58a4
2 -6 -2 9e79a3
-34 5 14 996d83
-25 10 22 af624a
-11 6 -3 83b1a9
14 31 -11 a0a0a0
-3 5 -16 3765e4
-22 1 15 884449
11 5 -8 6778ad
0 -20 4 5d2f99
18 -28 9 5d2f99
-13 -10 -2 37b76b
-29 4 -22 98a670
12 2 -42 d39286
3 -11 -27 a267c3
-15 -12 29 d98978
-14 26 13 575a8c
2 -11 8 b96b8d
-4 21 -33 5281ff
5 -9 24 704284
27 -1 12 bc63ba
-5 -26 18 6a2482
-16 9 -15 ffa764
-29 7 12 d9ffa8
19 -11 -2 9b6eda
18 19 -14 a0a0a0
15 0 15 6268e6
0 -14 -25 69be95
17 6 -6 ff878b
34 -13 16 734c7b
10 -15 8 734c7b
-13 -11 12 937b76
9 -14 4 8ddaff
23 -20 -3 331ed7
13 9 -2 4f325d
38 -15 2 734c7b
18 -37 4 8a4b7e
35 0 3 4f325d
-27 -8 -23 a0a0a0
19 7 10 581f47
-28 9 16 828390
-3 -2 22 fd327c
-27 27 -26 8d57a7
-6 -28 -10 565a87
36 -2 -6 534268
-13 23 -13 bca3e5
-4 6 5 ce8daf
15 -24 -7 4f598b
18 16 -24 fe629c
19 -6 -12 bda8b3
-21 1 -27 ceac8f
25 8 27 ad3d56
-34 16 6 d8a0b5
27 1 -5 5699d5
34 31 -16 d78a93
-5 0 24 925391
-23 17 -9 b8aad7
6 -10 3 676788
4 -17 22 874878
29 -14 -21 d78a93
-12 -15 19 4d6ec0
-21 38 -1 e5feae
-27 31 6 ad6c9b
-10 -11 0 6f576e
11 -8 32 734c7b
28 -19 8 d78a93
-24 9 -29 cdcdc1
-17 -6 -10 6f3a52
4 -13 5 5d2f99
4 8 26 793572
-22 4 12 845e5a
-1 -14 -17 455880
-4 9 37 9c4d97
32 -1 -7 4f325d
-10 -15 -2 90a887
2 -4 -11 6f576e
40 -23 2 8f5c98
-9 -15 -31 9f309d
-27 -17 4 b7457a
-29 -3 14 662938
29 -4 0 4f325d
-43 15 17 747d63
-8 14 -2 96884d
9 -3 -31 613354
-22 -31 -1 5b82bd
-22 14 -27 77699a
-9 0 1 d871df
-15 -5 26 b3d483
12 7 -20 c2a96b
3 10 -5 781e95
-3 6 -8 9c90e6
-13 21 0 d15cc1
-13 14 -12 a1a1b7
-15 2 19 e6ff91
-9 18 5 88c0f9
-21 -10 -4 f17998
-19 -10 -4 565f67
9 22 0 523366
-16 -11 -2 48685e
9 9 35 925391
4 0 -8 9cbe81
41 -23 -7 685b97
-17 -18 19 a267c3
3 -34 16 714e85
19 -8 -5 6c267d
-47 13 12 70badb
9 -7 -15 8f9072
10 -13 -11 797d5e
12 -15 14 7f616b
25 -6 -26 916792
18 -33 -6 8a4b7e
-22 9 -10 c8f4b3
-11 40 1 afaedf
15 4 -6 a4719e
-26 9 23 6a554f
18 -3 -19 a05068
-23 6 -30 b0ec7a
-10 -1 16 787d79
-1 7 -38 d75949
-21 20 -21 6ea1da
-2 8 13 ad697b
-31 -5 0 9b7088
-16 6 -14 be6ac4
3 -9 16 4d417b
-4 -7 15 6f5c57
-8 -10 28 6d4d8d
-16 -11 3 744e50
11 -13 7 881ea4
-42 26 6 c464bb
-31 -26 -5 494f52
26 -6 -6 706ece
-28 -7 2 28916f
11 -29 -4 3b619d
-26 -8 -4 86a5ff
12 6 -12 8860f4
14 25 -22 7863ce
-7 -2 -14 74318a
-37 -15 -4 497359
-16 -6 -35 a0a0a0
12 27 -17 5660c0
11 -32 -7 595349
-22 3 15 5b3546
0 -23 -5 4c6a7a
10 -14 -33 dbb6c3
20 -10 2 473d5f
-28 7 -38 a295d6
-18 -19 -10 af5d85
-17 -1 23 768174
21 0 4 444b57
16 7 2 342238
10 -16 -1 6e2eb2
-8 26 -25 5f5ac3
-13 -2 21 ad697b
-21 41 -19 9ca9ab
-29 -2 -19 b2ca88
-28 -15 16 7d6879
2 -25 2 5d2f99
-23 -17 16 a0a0a0
-28 -4 -40 9b9e67
11 4 -7 6778ad
0 -16 0 4598ff
28 -5 -6 bc63ba
27 -6 -16 865762
-31 -5 -24 836167
-13 14 18 83a76f
-25 -35 -2 43799f
-19 1 20 ad697b
20 -18 10 474433
23 -21 7 a33973
-31 9 9 9ca9ab
-40 10 29 747d63
13 -12 -11 9da0c2
28 14 -23 ff7894
-7 -19 -36 a0a0a0
-15 33 -14 626e9f
-32 2 22 b469b0
-30 15 -24 ffa767
-10 -17 12 ad697b
-13 3 25 9ca9ab
-22 -24 18 744e50
-12 11 -9 627294
-35 17 -23 a0a0a0
11 -10 12 4f325d
-24 6 17 b0545e
17 25 -10 ff6f88
-2 22 0 6b2d4d
-2 12 21 b85295
17 -2 -20 a0a0a0
-17 6 22 ad697b
-31 2 5 708fee
-32 20 -26 c4d26e
-10 34 2 a0a0a0
-28 31 8 ad6c9b
13 17 8 6b2d4d
13 -8 -32 6162a2
-15 2 32 a76178
-27 23 31 747d63
-8 1 13 af62ad
-3 -10 5 ad697b
25 11 11 6b2d4d
-43 42 14 f56ed4
-26 4 16 662938
2 11 31 ff59c4
5 2 -12 734c7b
5 -31 -8 9b5476
23 32 -6 ff9c8b
-31 -21 -1 42485a
-38 2 -16 895999
-22 5 -10 e979ad
19 -7 -15 ff9a5f
-52 24 13 747d63
-9 -9 14 d77669
11 17 -7 be918e
-13 19 11 c264a2
-10 -13 6 9e79a3
4 23 -14 5db1ff
-22 -16 11 744e50
22 -28 -7 4f598b
39 -26 -26 d69b60
-21 -16 -33 526a58
7 32 -1 85a3d5
-27 3 19 ad697b
18 4 -21 87de7b
24 -8 21 482f98
23 -29 -2 8a4b7e
1 32 0 88c1da
-46 23 -31 6e997a
21 -18 7 4e40c1
5 28 16 bb53b8
-14 -19 17 8f219f
-19 10 17 68a2de
-11 11 -20 a0a0a0
-17 11 27 69af5f
-8 22 1 6eae94
-22 18 -12 9ca9ab
-32 -13 2 cd76dc
-2 -13 -30 c1a7cf
8 -26 -5 4a5c98
20 -7 -25 ff90c9
-20 23 5 6d948f
6 -19 -12 54a54d
-21 16 20 b0545e
-14 1 -1 a09577
8 4 7 43305a
14 9 -11 696d92
9 7 17 ce8daf
48 -8 -22 b76a66
-11 -4 -1 c6c7d8
-12 9 10 b5ffff
-37 28 -10 aa4e97
-1 12 -21 543377
-11 -23 -2 74cbc2
3 6 -23 603980
-15 13 18 cd3769
5 15 -24 49658b
-1 29 0 778f85
-28 -8 2 615c69
-9 -26 -14 806453
14 5 -8 8e1c62
-6 6 -16 b95063
13 23 2 c7a861
-19 23 0 7b87bd
-15 26 -14 c1bec0
-8 -11 -22 a0a0a0
-2 17 -28 5a6cff
6 -18 -1 7ac5d1
1 10 -22 ff49cc
-12 31 15 f17b87
6 2 -11 ac9850
-10 16 -28 ca96b9
0 19 -7 60caff
-10 -24 9 ee8da6
-32 12 -16 7992ae
-15 -6 -37 69bf7c
6 22 28 9249c2
-6 -3 -15 57434f
11 -19 -24 d78a93
1 2 -11 8c314d
2 -22 -1 953771
-19 -14 7 a0a0a0
-11 -4 -3 3e7eff
-17 8 -8 77ffcd
-21 42 4 6785e2
41 -27 -13 ee8180
20 -5 -26 ff90c9
-44 -27 13 686358
-5 -21 -10 806453
-11 1 19 ad697b
13 -19 -21 6f576e
25 0 -16 985cac
-5 26 1 ce8daf
-15 23 10 7a7180
-23 14 25 747435
8 4 -25 ff99fc
4 16 -23 ff9ba0
12 3 1 545490
-2 -30 -26 8073ff
-40 12 -7 b759b2
-22 27 -10 ae81be
-14 -7 25 ad697b
-41 35 20 896548
-16 40 -7 e390aa
16 -22 -24 82716d
6 -9 -37 ff90c9
8 21 -8 a0a0a0
-6 41 -22 d0d7b8
12 -3 15 72b6a6
-6 36 -5 b7d3c4
-35 37 -1 c156a0
-15 -3 8 7d4989
38 -1 20 3b3e7a
9 -4 -5 5d1e4d
-7 -9 6 b35692
-16 -5 -34 a0a0a0
-23 23 18 b0545e
-31 26 -23 7f82f4
-8 25 -1 ee49a5
2 17 17 4d8e9d
-15 -11 31 b8ceb4
-17 -23 -35 526a58
10 -10 3 7b80ca
-9 10 -16 6d68b0
4 -14 27 564755
-8 1 9 ad697b
-10 -22 -8 b692a6
8 12 -17 a267c3
7 8 26 7b2c41
7 -12 8 80348f
-19 8 3 b65476
3 -25 8 78284b
2 2 18 9b4f5b
10 5 -8 476665
-27 24 14 a97d9e
2 0 0 aa53ff
-32 27 -12 c156a0
40 -19 -11 ee8180
-33 20 -5 8e4e46
46 -15 3 9778ac
15 -34 11 a33973
-23 14 24 4d3651
8 -18 1 bd94d6
41 -9 20 734c7b
-1 14 22 6b476c
-4 -3 -17 57434f
40 18 -16 ff7894
37 0 12 4f325d
-14 44 -4 ce8daf
-15 17 2 85a3d5
-9 -10 -18 a0a0a0
7 4 -33 6162a2
-6 2 -21 6f686a
-5 12 22 682a8f
8 7 -14 a0a0a0
-27 4 -10 3c8260
-4 -2 0 ad697b
-12 -1 11 cd4fcb
-20 7 -15 be6ac4
-20 -3 -18 b0ec7a
-9 10 -27 6d334f
-27 21 -24 79d683
-20 20 16 976c5e
-16 -8 1 8e3842
11 20 -25 7863ce
25 -14 17 705975
-19 14 -10 91c6c0
0 15 7 a0a0a0
-13 24 -27 5c9d6c
-4 17 13 438c8a
-29 6 -5 95768a
17 -7 4 7a2852
-2 -16 22 696eb9
-18 -2 14 662938
-20 7 -19 a0a0a0
-38 -33 12 8a4777
19 10 -6 56217a
-33 -3 12 a8539c
-12 6 0 9ca9ab
-27 21 -9 9b72d0
-8 0 7 63f2c0
-52 30 -5 747d63
-11 -10 -20 753092
-49 39 26 866444
18 -9 -10 684bc4
-5 -17 21 703ac0
-11 -2 10 679ccb
7 -17 1 8c364a
22 12 -16 d46a61
-49 -15 -23 b2ca88
-28 27 7 c48aa7
12 -9 -17 47a7b5
15 -11 3 ff90c9
-9 21 -20 a0a0a0
-24 9 9 ad697b
0 -9 2 386eec
0 -15 -7 698760
-16 35 10 5b987d
-12 1 -10 be6ac4
13 -19 7 6d477c
21 10 -3 f8ffc5
-23 12 25 9f5770
-6 21 -20 4c79f2
17 15 -11 86b19b
42 -23 -10 685b97
15 -4 6 322a48
-20 -15 18 ad697b
9 6 5 6b2d4d
19 12 12 8a5f7f
40 8 -1 f1b081
-9 6 -23 a0a0a0
-3 2 -13 ff8fa5
-31 3 -15 b2ca88
-5 22 18 b8aad7
-37 -1 -13 ca60ff
14 -10 -28 dbb6c3
-3 17 -25 ffc092
-4 18 -19 c288dd
-9 18 15 6edab7
16 -14 -22 d78a93
-32 18 -39 81849a
-20 -6 22 f05a58
-15 15 32 ad697b
-25 -1 10 a97d9e
2 4 29 82a5b0
-38 1 -20 baa759
-18 -3 1 43799f
26 9 4 8e1c62
-5 -22 -8 6f576e
-14 -2 34 d98978
-19 21 -24 6ea1da
15 -3 15 504d46
-18 -19 11 744e50
-21 21 -13 a0a0a0
26 -10 7 734c7b
-14 -2 -38 76d468
-32 33 9 7a7180
20 -18 19 6fb2bf
22 5 5 542e23
-16 25 6 92bfe1
-14 -5 7 b3a3a2
-27 24 -12 a16e94
2 2 -18 7549a6
14 -37 -7 4a5c98
-1 18 18 d096ba
20 15 17 6b2d4d
-11 40 16 e183cc
-8 20 25 9ca9ab
-26 -11 -15 5b8557
3 12 3 ff7cba
-28 6 10 8b4ea0
24 -20 -29 a28477
-8 -4 22 b8ceb4
-2 23 -18 dc7484
-11 29 -8 b975ef
-8 33 -25 786598
-1 17 -19 bed5c7
-14 -19 -9 ffed6f
3 -20 -26 6f576e
-44 13 8 70badb
16 -12 6 a0a0a0
29 -17 -31 a28477
16 4 -22 a0a0a0
15 -12 -12 4d8546
10 12 6 57449e
31 -1 -4 4f325d
2 25 1 67bbb6
-1 27 -29 47963b
-14 -5 19 46406c
3 -6 -15 539340
4 -8 22 6f4c61
9 3 -22 d39286
-15 0 -33 a0a0a0
-41 -4 2 baf7ef
-14 26 0 8a99ce
-19 30 3 acc3e1
6 11 -7 704284
11 -6 -1 482663
-7 34 -22 467c68
22 8 -8 8faee5
0 -7 -32 49658b
-27 23 -12 97ffb1
-2 -24 0 90aba9
-18 34 14 a0a0a0
-14 22 -43 81849a
-17 -5 -17 896281
4 -6 20 af2a7c
4 -11 15 a1fffc
12 -18 1 6e2eb2
0 21 18 b8aad7
-33 19 -16 81f96f
-19 -2 -31 8fde95
-15 2 6 9b75d5
-27 -13 19 94595b
-12 11 8 a8a44d
-7 21 6 7a3e8c
-21 10 19 6a554f
39 -14 0 734c7b
26 -17 16 734c7b
-25 -19 20 ad697b
-27 18 -13 627294
24 -6 9 694f32
-9 17 24 d24e7a
-12 12 -1 df7e79
1 -9 -8 9e79a3
20 -25 -7 734c7b
29 11 -8 706ece
-42 -21 3 deedee
-27 33 -29 be74aa
-5 12 15 438c8a
31 3 6 514539
3 1 8 438c8a
-4 2 -35 baeda4
21 -2 23 8d32b3
39 7 -19 ee8180
-22 -3 9 a57973
-26 -16 -14 60617b
-16 4 17 69ddb2
-22 -17 0 644d4b
-40 9 26 b44366
-45 42 -8 c957ff
23 19 -3 ff6f88
-18 -17 -5 337ede
-23 21 -5 c156a0
-19 -3 -13 6f3a52
-27 -5 2 af5da0
-55 24 12 727c5a
7 11 -15 8bed9c
-15 -5 -5 87d49f
-41 3 22 7ea4b4
27 -10 -6 a2142e
19 -37 12 7c417a
29 -2 23 603877
-28 -2 9 a97d9e
-5 8 -20 ff9ba0
-11 -16 -23 86b47c
-23 27 -3 70585f
4 26 7 3f7b91
-10 17 24 438c8a
-39 12 -23 a0a0a0
-49 49 5 6a6e6f
17 -23 -12 45239d
-24 -2 -19 b2ca88
-17 -3 -5 922757
-33 -14 24 997e65
-32 -6 -10 a0a0a0
-11 7 -41 94a7a2
-19 -19 -16 e7c058
-25 -21 0 6c5330
17 17 -22 752646
34 -5 -14 8e63bf
6 8 -21 ff9ba0
19 -1 12 303b54
3 14 4 97216b
-17 14 16 ad804a
-9 -1 27 734e54
19 9 -25 e6a84c
39 -19 -2 ee8180
-26 15 -23 6b7383
11 10 18 724e45
-9 -4 -9 93f1aa
-47 4 12 8b4ea0
-11 30 15 f17b87
20 -24 -20 9da0c2
-19 -2 -8 a0a0a0
-5 16 35 ab3374
-23 -14 -20 6f576e
6 -3 10 7769a2
22 1 -14 76ffff
28 -25 10 a33973
-32 12 -23 fcffb3
11 -3 -10 575d81
12 34 -1 81aebc
-22 9 19 2276bd
-27 7 -11 cf668f
-3 -27 13 d78a93
-2 -2 34 8c50e8
-18 29 6 4c9397
9 -31 -4 773d93
-50 2 0 9ca9ab
38 -21 -6 685b97
-3 6 -1 297a80
-42 -1 -2 b7a2ff
-39 -1 25 8a85b5
-30 2 32 ad697b
-24 3 -20 bdffb3
-43 17 13 747d63
-27 -4 7 39776f
-23 2 -9 f5fb43
-33 -6 -9 b7a2ff
-4 2 24 ad728a
-10 -23 21 646d88
-15 22 9 a199ff
-21 -9 13 4b9d80
23 -18 -22 916792
36 0 -3 4f325d
-3 -8 25 865eaf
27 2 6 4f325d
-18 11 -25 bdffb3
-3 -13 27 5e3565
-22 -11 7 6c5330
-7 5 -35 baeda4
14 9 0 ce8daf
-27 31 -38 ec6865
-9 6 -19 6f576e
-25 5 -5 80724c
-11 -14 -17 70398e
-31 22 -12 81f96f
6 -17 8 646d88
10 -8 -25 d78a93
-17 -14 5 644d4b
-36 12 -24 a0a0a0
22 -12 7 77312f
-25 -4 10 6f8859
-17 -3 37 b8ceb4
9 -5 7 57449e
-15 1 23 9ca9ab
40 -11 -4 ee8180
-9 -13 0 a267c3
-27 23 35 747d63
-16 -6 -7 615c69
-21 1 -16 a0a0a0
10 -16 23 94277b
-30 -19 3 d2abc7
-13 -17 -14 74318a
-18 -8 14 4b9d80
-20 -26 6 84b253
-7 -21 -37 bd51a8
-16 21 -4 4e87aa
-30 17 0 c156a0
-28 1 29 d98978
-3 -10 29 b8ceb4
1 -12 -25 9f309d
-29 15 -10 889971
-36 6 -4 a0a0a0
-11 -10 -2 6f576e
-13 -5 -21 6f576e
-40 2 -1 9f5377
-9 4 10 a86475
8 -38 -8 6728a9
-34 -4 15 7256f3
2 -3 -7 4e6d54
1 -12 -8 5c7e67
-13 19 -6 ad697b
-32 9 -7 a0c48d
6 -15 -12 ffb05e
6 21 8 925391
-9 -25 -33 964c84
-37 -8 0 d65884
1 4 17 7d3e6d
16 -15 18 88318a
-25 3 33 75578e
-27 3 -3 d7ffb6
12 -17 2 bf5084
12 -12 2 5a304e
34 5 -22 d39286
27 3 -19 bda8b3
-15 29 -20 85a3d5
-27 4 -27 a0a0a0
-27 2 14 67ffbd
-17 -16 3 386eec
-24 10 3 a29986
-34 36 4 ffb882
-2 4 -19 b95063
18 -15 -31 dbb6c3
-24 32 19 4b4030
37 0 0 4f325d
-39 26 20 747d63
8 -4 1 f578af
9 7 -20 e9c14a
4 -27 19 61415f
-21 -6 11 ad697b
-34 -16 -16 b88069
16 -8 -6 61415f
-17 -25 8 43799f
-9 28 -3 8b9b69
-4 1 13 834f67
-32 20 -8 8e4e46
-11 -20 -24 56dc7d
-31 26 -40 c46a7e
-4 19 -16 d3a358
-19 -14 -8 91d2a5
24 7 -8 3e46ff
-15 23 -35 7caf7b
6 1 9 9e79a3
-8 -3 -2 ad9673
-33 -7 -7 a0a0a0
-5 -2 -17 b66c37
9 -1 -16 545490
-26 -8 15 b0467f
0 -16 -1 a0a0a0
-46 29 -7 747d63
-12 -7 24 ad697b
10 -22 8 734c7b
15 -17 4 d78a93
17 -9 0 6d477c
-11 -17 -10 8c85b1
-1 -15 -27 40b33d
-6 21 12 733c41
19 -18 15 734c7b
-6 29 3 68a2de
16 6 3 4f325d
-21 -6 20 dc599b
2 -5 7 438c8a
16 11 9 4f325d
-14 9 4 9ca9ab
-16 13 -18 a1a1b7
40 -24 -7 8f5c98
-17 0 21 563f38
-2 -18 -40 6a789c
-14 20 0 8a99ce
-36 9 -10 e59ef6
-20 14 -7 78cb64
-23 29 -19 9ca9ab
25 -20 -14 3917a6
-19 -4 -5 37b76b
-17 30 -3 ce8daf
-6 31 -3 f8ff6b
-23 -20 -16 a0a0a0
-21 -1 -21 b0ec7a
5 -2 -17 ff7667
14 -3 19 af2a7c
-5 -5 -27 613354
-27 -16 -9 626e54
-13 -10 -1 c6c7d8
-14 -20 -3 737a8f
16 28 -7 89a5ff
-4 23 17 5d6efd
-34 6 -21 c2dbb8
-52 8 -25 a0a0a0
-27 22 31 747d63
14 10 23 925391
-6 20 13 a97d9e
12 1 -37 9f3674
32 -3 -14 bda8b3
-19 -9 25 ffb3ff
-25 -19 -15 a79f92
-27 -1 -1 e979ad
-19 11 -12 b2ca88
15 9 4 422a73
-12 -1 35 d98978
-14 18 -22 78cb64
9 -1 -20 759d90
30 -17 6 cb4347
-12 -21 2 5e3da9
-19 -17 1 5e2b42
-5 12 14 a178da
-20 -18 22 744e50
18 -11 -10 c2b4c9
-3 -22 -24 698ec7
-15 20 29 ef4174
-12 15 13 7e8581
-25 -11 13 ad697b
-39 43 13 f56ed4
-46 20 -29 6e997a
-2 -24 -3 895d51
-5 5 26 734e54
24 -8 6 4f325d
4 -22 -23 6f576e
-20 0 -24 a0a0a0
4 -1 28 ce306c
0 1 -3 a57f89
-12 13 -17 77ffcd
3 6 -13 9ca9ab
-1 13 -4 959edf
-28 -1 22 ad697b
5 16 6 6b2d4d
-22 -15 -22 9da69d
-16 -1 -29 69784c
-42 6 -23 6a9859
-46 -6 12 ddcdc5
-25 -19 -1 d2abc7
-38 -2 -10 828c89
-9 -3 2 6f576e
10 -34 -8 75474a
-20 36 -7 bab8fc
-28 -8 -12 ff7fdf
1 9 22 7769a2
-3 5 -11 7873b7
21 -17 -2 45239d
-5 13 -31 679a76
-29 7 16 ff9c99
-18 -8 15 744e50
-23 8 10 ad697b
-30 2 0 3bee57
-26 16 5 86957c
-27 20 0 7a954c
21 24 -7 d0d7b8
-5 -8 -27 716469
11 -23 -13 6f576e
-28 33 -27 be74aa
-21 -16 -13 ffbf55
-13 17 10 89d1ff
-18 -18 24 744e50
2 18 20 34567a
22 9 -21 ef54f2
-53 7 0 70badb
15 -8 10 704284
-15 22 21 7de6ad
-8 -27 -7 895d51
4 -4 15 704284
4 -26 8 3b3e8a
0 -25 -10 a267c3
-15 -13 5 d2756b
18 -21 -25 9734c7
-11 -7 26 d98978
-8 -3 30 7d3e6d
2 28 -11 ab91ea
-10 -2 28 734e54
6 14 -7 8b6c97
-18 0 -25 a0a0a0
-2 9 5 ad9673
-9 -15 16 80348f
15 -27 20 a63755
-42 8 -5 a0a0a0
-15 4 0 c86cb4
39 11 -24 ee8180
-16 -5 18 ad697b
-5 6 -12 955694
7 7 -6 704284
-32 -5 -15 ff7fdf
9 -25 -2 734c7b
0 28 20 3bffc3
-45 31 7 747d63
-16 14 3 ce8daf
25 -31 -6 8a4b7e
-1 27 24 b8aad7
-18 13 2 ad697b
-34 20 -11 81f96f
25 4 18 954871
-17 -18 20 ad697b
10 19 1 a0a0a0
-32 2 -36 a0a0a0
19 7 15 673f84
24 -8 -10 8b58a7
-11 -17 -2 90a887
-15 15 2 ff6cff
27 12 -29 d78a93
-9 -17 23 46406c
-12 -9 -18 308e77
4 -3 -17 98779a
-32 19 -18 797ac3
3 7 -12 ff82a8
18 -33 11 a33973
21 15 -27 d39286
27 7 2 ab536c
12 1 -5 706ece
20 -8 8 66b5c4
-29 8 -18 b2ca88
-14 5 -35 7d6a7b
36 -3 8 a13d70
3 -22 6 7d4962
-2 0 12 9e79a3
-19 9 5 4c994e
1 -30 6 43799f
-20 9 5 87e890
-5 17 -26 5281ff
-4 20 7 33aeb5
10 -11 -4 714e85
23 -4 30 6fb2bf
-5 -25 9 b26478
1 31 1 88c1da
5 -24 12 ab516d
-19 -14 -16 7f24b6
31 -2 1 5ab9a3
0 18 -25 ce8daf
-26 -2 16 ad697b
-12 3 25 b54898
11 11 19 6fb2bf
6 -6 -29 ccc9e1
-9 19 -20 95dab3
-8 3 25 eb7c94
29 6 -13 ff7894
2 0 -11 524574
4 34 -5 6abdcd
-29 0 2 bacff5
19 10 -27 a0a0a0
4 -1 -23 6162a2
-29 13 -10 4b577c
-32 -14 9 612a66
16 9 18 8142ac
-18 -14 27 d98978
-8 18 -1 7aeb90
5 12 11 603e28
25 4 -4 4f325d
-19 -19 -25 7d5d64
2 -18 16 632ed8
-15 20 -1 8a99ce
-20 -25 -3 a552ab
-20 -24 -4 337ede
7 -4 3 7a3a7f
-38 11 16 b04f8d
26 -24 -18 3c307b
24 18 1 b83562
14 0 -10 8e1c62
-8 -26 15 ab8bd6
-28 18 -1 876558
-5 -15 8 8d6a54
4 -7 -26 3c585d
-21 4 9 ad697b
-29 -5 12 d4628d
-18 -17 25 6ebaa7
-14 -9 -10 6f3a52
-6 -19 -31 8c527e
-26 18 8 9f7c54
-35 5 23 e979ad
10 -14 -24 ff90c9
-15 24 10 fbbc90
-5 -16 -25 cf3494
-7 22 -5 a199ff
28 -14 -1 8546aa
-27 17 20 989883
-1 27 21 b8aad7
-5 1 -6 5656b7
47 0 -7 322a48
-19 -19 11 7d4989
-27 -11 4 b7a2ff
21 21 -7 ff4ca2
6 15 -21 ff7ed7
-34 34 0 747d63
-31 31 13 7a7180
-24 36 -4 7a7bcb
0 23 32 925391
26 -6 -1 a2142e
-15 -13 10 5d345f
16 17 -20 ba5873
10 24 -5 67bbb6
-2 -4 -11 734c7b
-24 34 -18 be74aa
-14 11 -10 8e3079
14 11 0 323d71
-10 0 -6 e8d063
-35 27 28 747d63
-38 21 -11 97dc6f
25 -30 -13 ff6895
-14 -10 -19 626e54
-35 22 11 e979ad
16 -24 -14 734c7b
21 15 0 4f325d
31 -10 24 734c7b
-34 10 14 a0a0a0
-26 1 21 ad697b
13 -17 -2 70489c
13 9 11 4f325d
-4 25 -7 bd5e47
6 13 -9 cebf82
-2 -12 -11 434fb1
-27 -4 3 af5da0
-19 2 17 d98978
-2 -24 15 874878
-35 9 17 b04f8d
14 -16 10 a0a0a0
-35 21 13 ff6cff
-32 5 -10 a0a0a0
9 -8 3 7a2852
-38 30 -7 d16c84
28 -1 -26 985cac
-24 0 20 ad697b
31 -3 10 37223e
-34 6 8 d4dd82
25 -14 -10 bda8b3
26 -23 19 6fb2bf
-17 20 -31 81849a
-17 25 4 ff6cff
-27 10 -6 bc72bd
-15 -3 27 ad697b
-2 -1 -17 627355
-29 9 18 9d4296
13 22 -14 d0d7b8
-17 41 -8 ce8daf
-1 24 13 715444
-3 -3 2 4f6fb9
-36 5 -12 a0a0a0
-3 -23 -14 92697b
4 -6 11 4fb69e
-30 -9 16 ad697b
-2 -4 24 5170c5
-1 -10 -14 539340
3 -7 43 454070
-9 17 12 6edab7
17 4 -3 8e1c62
15 -20 -20 afa37e
-10 9 12 81bc74
-8 21 -15 ce8daf
0 15 -28 6162a2
-12 -24 -4 cdbd78
-25 28 17 a97d9e
18 20 -12 f75997
-17 -7 -25 908881
-23 -2 15 ad697b
-9 25 -12 6167b2
-10 22 -21 95dab3
2 28 10 bb53b8
-6 -10 -18 5042c6
-46 16 -2 ff6277
-20 6 2 5b7d72
20 3 10 4f325d
-13 -11 -21 a0a0a0
14 -17 -11 5b227c
5 16 -25 7863ce
-38 12 -6 8fd577
-34 19 13 747d63
-24 5 29 b8ceb4
-8 9 -34 baeda4
-17 2 -14 be6ac4
-16 0 -13 1a4aff
-8 24 13 b9e0a4
-4 11 -11 6678f9
-4 -31 18 b4b17f
-19 -20 -18 a79f92
-8 10 -28 679a76
-17 7 -11 d18f67
-7 1 29 5c3d44
14 -3 -16 6f576e
15 6 -32 ebb47b
-23 38 -12 e26855
27 -31 -16 d78a93
30 5 -33 8d6579
27 -16 -7 8a4b7e
6 -7 14 704284
15 -29 -10 617362
-19 36 -28 81849a
10 3 8 85ffe2
1 -2 15 8dd7bb
-47 18 3 cce6bc
-31 -5 16 b0467f
8 10 -9 6b4465
-56 29 -3 747d63
-27 17 -30 955498
31 -7 -17 bda8b3
-36 34 -3 747d63
-15 -6 18 d98978
-42 -13 -6 87adbd
-56 21 0 747d63
-53 3 -5 65834b
-7 10 27 792f5d
-4 -1 2 ad697b
-29 -6 -23 813b76
-30 16 12 747d63
-21 -25 14 2b2858
-2 -17 -8 d9916f
17 -10 -13 d05fb3
-4 10 8 b19ed2
-11 6 30 ad697b
-42 6 -14 a6ff73
-34 22 -25 c4d26e
-46 -12 -14 b7a2ff
-28 -6 -8 ff7fdf
-33 -3 -38 dc99c7
-40 26 2 9d59dd
33 -35 -3 d78a93
-15 17 11 a9e1eb
-12 -12 4 b57d56
-21 -6 21 dc599b
4 -4 11 af2a7c
-14 37 8 5b987d
-35 30 11 625d47
26 5 -20 bb2f56
6 -27 3 f98357
28 -10 -1 a2142e
-21 -24 2 a0a0a0
-33 23 -16 94ff6e
-27 -3 3 615c69
-17 -5 -24 a0a0a0
11 -18 -11 6f576e
-2 2 -10 9781e5
12 30 -2 332526
32 -9 -2 af525c
-28 18 -28 9ca9ab
30 17 -7 3f4355
-8 5 -8 6678f9
-32 -1 -3 60617b
-35 -15 -7 b7a2ff
-17 12 21 c58188
22 5 -30 bb71c1
4 -5 1 ff7cba
-1 -1 4 7fc0a4
-10 5 16 9e79a3
-26 0 -25 36b07f
14 -10 -14 9f7891
3 13 -19 918e6c
16 -38 -14 773d93
27 6 0 4f325d
-28 24 -22 49a7a6
-32 2 17 8b4ea0
-29 -6 10 d4628d
3 11 -17 c24978
-8 24 -29 6162a2
16 12 -17 ff6f88
26 8 -19 9c4d62
-13 -15 14 a0a0a0
-25 45 10 8b9b69
-4 7 29 734e54
-35 -10 -12 6f576e
-20 -14 3 644d4b
17 -5 -13 6387f1
-18 -5 8 be7b5a
-1 1 -18 c89e9d
-10 33 -11 b7d3c4
-29 -10 -8 a0a0a0
-15 -15 12 674626
-14 -14 7 744e50
-18 -7 -3 517975
-16 12 -23 a0a0a0
-11 18 -2 6d948f
-32 30 11 697cd6
-9 -3 -25 836971
10 8 -4 704284
-16 9 30 4ba3ce
-22 21 -3 50d6ca
-45 34 -11 856148
-29 -9 21 6bc972
-11 45 -14 85a3d5
-21 23 -37 7193ab
-33 -8 9 e979ad
-23 -24 -31 6f576e
28 -3 -17 bda8b3
-1 -9 35 7f2a8a
-33 1 -13 99ff67
-5 22 -34 8b8b58
5 -22 0 953771
-12 6 23 f33681
-39 10 1 d74d6a
-19 36 -6 7d77af
16 3 -30 7059b9
-3 -24 -5 4c6a7a
-38 25 -13 c156a0
-46 38 24 896548
-12 -1 -29 a0a0a0
1 -18 19 6f4c61
-8 -2 22 b8ceb4
-40 23 0 a2dd5a
-10 -27 -23 698ec7
19 9 -23 d39286
-7 -6 -6 9edf48
-32 21 1 ff6cff
-2 -6 4 6162a2
-21 -21 -19 74cbc2
25 -16 -19 f28087
-18 -10 -12 4c609e
6 -26 -18 a3be8c
32 -5 -6 ee8180
-18 -4 -16 b42f42
0 -22 2 a6333c
-11 26 -25 5873ad
-11 3 -21 75506a
8 29 -12 ff6f88
7 26 5 5f9bff
0 1 1 4f325d
-7 -24 12 5c3e55
22 -23 13 a33973
4 -9 -34 49658b
-34 1 15 8b4ea0
13 -8 -30 e6b460
-7 29 -7 778f85
9 -22 -11 6f576e
2 -4 -18 6f576e
-25 -4 34 ad697b
-11 14 3 5e50a1
30 -12 7 a28473
-26 -19 0 a2394d
16 31 -4 89a5ff
8 3 2 542623
-14 -11 17 ad697b
-21 -29 10 8d65aa
-41 -17 13 ad697b
-6 -3 -31 9a78a5
-13 -26 -19 698ec7
-6 9 0 4944ff
-22 18 6 fc7d7a
-7 -11 15 438c8a
1 5 -2 ff79ef
-19 27 -6 a3bcdc
4 0 -12 af45b3
-16 19 -17 ae81be
22 6 -5 ff67c8
31 -9 1 ee8180
-12 -4 -11 e8d063
9 14 12 68a2de
-21 35 -13 53c0b3
-5 -15 -6 d9916f
-23 16 18 6a554f
29 -6 13 4f325d
-18 -10 -16 a0a0a0
10 -4 1 3c62b9
-12 7 -10 bed5c7
-17 2 32 b8ceb4
-13 7 -30 ffc092
-33 9 20 6a8a7f
11 -18 4 ffa899
10 16 -31 727da8
7 -8 6 734c7b
18 1 -20 985cac
10 -5 -23 a267c3
-2 4 -17 6d9ddb
32 0 17 6fb2bf
-15 -11 10 825b4e
3 0 -7 6162a2
-14 16 40 48639a
-2 -10 -10 ad9673
-42 14 -14 bcd67c
18 -5 -3 4f325d
-14 25 -29 78cb64
-9 17 2 87455c
17 -11 -5 39756d
-17 2 -27 c9ac77
-4 4 -13 926569
2 19 34 48639a
-34 -17 -3 b7a2ff
-36 2 6 3651ed
1 6 -2 d98aff
8 -20 -36 9734c7
-8 21 3 96884d
20 -5 -10 a4719e
-32 -2 13 969bee
-46 1 11 8a85b5
-24 -15 -12 86a5ff
21 -3 -10 4f325d
30 -10 -19 bda8b3
-6 30 -2 8b9b69
9 1 -8 ff9ba0
13 -9 -5 5988e6
9 11 27 59b2e7
19 -6 5 ff90c9
-30 9 9 ca8e7e
13 2 -21 847a93
19 10 -1 8e1c62
-14 5 -25 b5eaa0
-25 17 25 70da94
-6 8 -9 955694
-2 4 -9 86344e
-48 22 -11 a0a0a0
-30 0 15 6a554f
12 -7 -1 5b227c
-30 1 -13 ea868a
27 3 22 ad3d56
-37 -19 -17 6f576e
-30 24 0 8ca7d3
-12 7 -6 ad697b
1 8 -37 d75949
1 -9 -12 539340
0 8 32 8e7aac
3 3 7 494e52
-5 22 -11 78cb64
0 15 -8 bed5c7
-20 -8 3 565f67
-6 10 -16 85a3d5
-15 -17 7 ff6d9b
-24 7 13 b0545e
-19 -11 0 c6c7d8
32 -3 -20 ee8180
13 -19 -28 2dff8d
-20 7 -3 6f576e
12 28 -16 a5b3c6
15 -16 -23 82716d
8 7 5 6b2d4d
9 20 11 ff778f
-3 27 16 5bdbff
-15 30 -27 78cb64
13 -17 -13 70489c
-25 22 2 7a954c
-3 2 -24 7daab5
-36 26 -6 5eaf61
7 22 -26 5987ff
6 -20 -11 50495f
-8 14 14 9cb071
5 -24 4 734c7b
-9 -20 26 5a59e7
-34 31 3 a97d9e
-13 -14 -1 644d4b
15 -5 6 322a48
-16 43 -29 81849a
-36 24 32 747d63
-13 10 16 81bc74
-6 22 14 68a2de
-4 39 -26 d9857a
7 -18 7 61415f
-22 -15 7 6c5330
4 15 17 7396ff
17 15 15 642531
22 -20 -2 5b227c
20 -7 -16 916792
0 18 -28 6162a2
2 -15 -27 a69482
-11 12 -12 d09ed3
34 12 -6 d1ffd8
9 -28 7 734c7b
0 3 2 ad9673
-1 -28 9 70489c
31 -14 2 4f325d
-2 -8 -13 5a6450
1 17 -18 ff49cc
-14 -14 -18 a0a0a0
-3 -3 21 80348f
4 22 1 6b2d4d
22 -6 -16 b65f5d
21 11 -9 4f325d
-9 33 -11 b7d3c4
2 -16 -10 698760
-14 -10 -25 b08064
41 10 -5 d2958b
-8 4 -38 a0a0a0
-29 -8 11 573bff
-12 16 7 5da17d
-23 -2 -26 55ffc6
-33 -5 -6 b7a2ff
-9 3 26 6f4068
7 -14 -22 803090
-32 3 -16 d3ea7f
33 -5 0 ee8180
2 -25 5 7d4989
17 -17 -17 7e4464
16 2 7 9b51e8
-34 18 0 627294
-4 18 -33 5281ff
-9 -8 5 be58a1
11 -16 1 d78a93
-20 11 -14 a0a0a0
-43 17 4 939886
20 -1 6 9b51e8
-17 7 24 f2ffe8
-3 35 -14 afffff
35 -6 -7 ee8180
-14 9 3 c64c6c
-22 23 18 b0545e
-1 -3 18 ba4172
-1 26 17 3bffc3
-16 -5 0 e8d063
-10 24 -25 4ecc81
-22 4 9 884449
5 -4 14 704284
-16 32 -22 69dc81
27 -13 -14 d78a93
15 -34 7 734c7b
-42 28 -3 c156a0
-17 31 -5 9e85cc
-17 -7 11 3651ed
-28 29 28 747d63
-12 -18 6 a0a0a0
20 20 3 4f5b5d
-29 16 -6 7589ed
-5 19 -11 dbd163
2 -7 -10 e04867
17 11 -27 8e1c62
5 28 -15 ea868a
-15 19 25 82c19e
1 25 -32 818071
10 -28 0 734c7b
-34 36 -12 c156a0
15 0 -32 d39286
-32 21 -28 bcaf88
-6 -10 2 3c62c3
-22 51 -7 85a3d5
-45 28 2 654e4f
-21 19 5 f7ffff
20 -4 18 808dd8
6 17 10 6bb6dc
9 38 9 85a3d5
-11 -13 27 d4d2a6
-24 8 25 662938
-13 -2 -4 523c78
5 19 -41 9442f5
-10 -14 16 ad697b
6 -16 9 646d88
-5 8 6 b19ed2
3 -4 -2 a57f89
0 1 28 7769a2
20 -31 -3 4f598b
-23 16 4 c853ae
7 19 -12 918e6c
-23 14 -21 c07294
1 -33 -11 6b4746
-1 -1 -3 446c98
-6 31 -31 8d9c8f
13 -15 -6 55575f
5 19 -1 438c8a
38 -25 0 ff6aa3
0 -7 23 88c099
4 -25 13 61415f
-23 -10 1 70f5b5
-31 -21 -13 6f576e
-10 3 -1 c28cd7
16 12 36 925391
6 5 14 7d26b8
3 6 6 438c8a
9 -9 -1 704284
13 10 13 6fb2bf
-18 -2 16 d98978
-3 -25 11 b26478
9 16 14 7d3e6d
2 0 24 6f5c57
13 2 -25 c9b28b
2 -15 16 586a69
4 -13 34 704284
-1 12 7 ad697b
-11 1 -3 c28cd7
5 1 19 ff7cba
-22 -2 17 a87766
2 -9 18 af2a7c
-13 14 13 5d4538
-20 29 -25 5bbf4b
17 -11 3 412b57
-14 20 -29 6ea1da
26 -16 9 d78a93
-4 14 -11 8894cc
-35 32 10 747d63
-1 -12 -14 4778cd
-28 -19 18 ad697b
6 -14 11 aa3288
23 5 10 632a5b
7 -19 1 714e85
-16 30 -27 78cb64
-5 28 6 b7d3c4
-9 -28 0 5d7447
-45 -11 12 ddcdc5
-14 31 -3 7da389
7 10 4 a3f6aa
8 13 27 925391
2 -13 -13 47b4d4
-21 -18 10 2b2858
11 -16 -29 734c7b
-32 1 3 744e50
9 -1 20 7a3a7f
4 -22 -1 734c7b
-7 5 34 ad697b
47 -17 -3 ee8180
9 9 -18 ff8fa5
16 -15 -1 d78a93
-15 -16 -4 47a699
-30 14 -13 9d5938
12 -24 6 734c7b
7 4 -12 4d53b1
7 -9 1 5e4ebf
-11 -4 -35 a0a0a0
-31 26 12 3ba367
-32 16 -24 c4d26e
-10 11 -16 c87eae
-22 -6 37 97a3a8
7 -29 -1 8b3b9d
3 -35 -2 675a9e
-17 -11 -18 7732f0
-27 -8 18 6bc972
0 9 -33 6d334f
25 -21 3 654782
22 -36 -4 c425a4
-3 -23 3 70489c
-4 10 16 68a2de
16 -2 -14 a0a0a0
-17 8 16 5b3546
-17 38 21 ef4174
12 -5 -20 7443f0
19 -26 -22 875967
-38 -21 0 497359
31 13 -32 d78a93
-9 -2 -26 a8d7ad
-47 6 6 a0a0a0
-30 9 0 7f7a63
-17 28 22 e183cc
-27 -11 12 60617b
18 5 -8 6f56bc
-9 34 8 ce8daf
19 -18 -27 ffadb4
7 -25 -18 6f576e
-23 31 -9 876558
-5 -9 5 ad697b
10 16 -9 464b9e
1 -10 35 7f2a8a
37 -4 19 4f325d
-5 20 -21 a890a1
15 19 -27 c24978
18 -18 -24 d13f57
10 -6 15 704284
-1 -25 18 6f4c61
-7 -13 17 6b2d4d
-17 -15 -3 e49e9f
-4 -11 9 a83e2c
-9 -20 -22 698ec7
8 18 -14 5c93ff
-26 15 7 c156a0
-2 2 25 ba4172
14 -2 2 5b227c
-5 -13 -16 539340
-35 -18 -5 95a364
3 1 -30 9c746a
-24 7 16 ad804a
-25 4 14 b0545e
-28 23 8 acc3e1
-39 -6 -13 b7a2ff
-9 -27 -5 895d51
-11 -3 25 b85295
-15 21 -22 507988
41 0 5 ffada8
-27 5 -3 46cf5d
-28 -1 23 ad697b
5 -32 -16 7b9793
1 -8 0 386eec
-11 -19 21 696eb9
-38 22 -18 ae76ff
-12 -20 -1 427c4f
-14 -17 -34 8c527e
3 -7 36 7f2a8a
-38 20 7 a97d9e
24 -5 18 6fb2bf
20 4 -23 a0a0a0
9 14 18 8e1c62
4 13 5 df8772
-26 17 2 86957c
-25 -6 -18 98a670
-39 17 2 74688b
-5 17 -4 ff72ff
-37 4 3 c156a0
-57 27 4 747d63
-22 17 16 b0545e
-46 -13 14 ddcdc5
0 -23 -12 4778cd
-27 13 9 b0545e
-33 13 11 b0545e
-28 23 -25 739c69
-12 29 -19 626e9f
-1 20 3 87b8f7
-21 -2 -38 a0a0a0
15 -17 -2 9b2e53
3 7 31 8e7aac
-18 2 10 662938
18 -8 -9 5988e6
-42 -25 14 686358
-34 10 -23 a0a0a0
8 -6 14 72383a
1 -23 -27 a0a0a0
29 31 6 a6698b
-30 -11 6 f0918b
-35 22 -21 7f82f4
13 -8 8 92cbb5
5 -28 -10 4c332f
-29 24 -1 ffb882
-10 -15 16 4d6ec0
11 -7 2 5222c1
35 9 -9 ffb155
-32 -5 15 ad697b
4 22 -21 ce8daf
-45 28 -6 866671
-21 -12 25 ad697b
-22 10 -16 78cb64
22 1 27 734c7b
-1 4 0 6e708b
-22 -12 -24 a0a0a0
2 35 -7 57c7bc
15 0 -13 a248da
-38 -25 0 b7a2ff
-12 31 22 c4e59c
8 -12 18 874878
-13 6 26 9ca9ab
0 30 1 afaedf
-10 -10 14 ad697b
-32 30 22 747d63
-8 6 22 925391
16 23 -1 ff778f
-1 -22 -12 778594
-28 21 8 c156a0
-31 -2 9 7380ff
12 13 9 342238
-52 6 12 727c5a
14 24 -3 ff34a8
-8 -7 5 84605f
-15 2 -14 6ac973
17 36 -11 5fe1bc
37 8 -11 706ece
17 -13 -27 d78a93
-9 -24 -21 6f576e
13 -14 -34 dbb6c3
29 15 19 6b2d4d
5 -19 1 953771
13 3 -4 8e1c62
-30 11 -25 71ff71
-3 -3 -1 5a5f72
-26 -2 -5 a0a0a0
16 2 -19 9bb265
-32 29 2 aa8aaa
-16 -8 7 ad697b
0 16 25 925391
-16 -9 -18 73634f
33 -6 1 514177
-20 -9 22 ad697b
-13 13 18 83a76f
5 -6 9 4fb69e
-25 -3 -7 a68186
14 -25 -14 75474a
21 -16 -9 875967
-14 32 0 7a7bcb
-41 40 15 747d63
-44 12 -15 a7ff4c
-16 -8 -21 753092
-9 23 26 71856a
-16 12 14 9cb780
-14 23 21 82c19e
-22 -7 14 ad697b
19 4 -10 364560
5 9 10 734c7b
-12 33 -15 87ffb9
8 -14 8 91d2a5
-25 -3 15 b04f8d
-17 -6 -21 ea868a
1 -17 15 586a69
